# .PCD v0.7 - Point Cloud Data file format
VERSION 0.7
FIELDS x y z
SIZE 4 4 4
TYPE F F F
COUNT 1 1 1
WIDTH 1570
HEIGHT 1
VIEWPOINT 0 0 0 1 0 0 0
POINTS 1570
DATA ascii
0.73465174 -0.19111909 1.825
0.73780245 -0.19111909 1.825
0.74095321 -0.19111909 1.825
0.74410391 -0.19111909 1.825
0.74725461 -0.19111909 1.825
0.75040531 -0.19111909 1.825
0.75355601 -0.19111909 1.825
0.75670677 -0.19111909 1.825
0.75985748 -0.19111909 1.825
0.76300818 -0.19111909 1.825
0.76615888 -0.19111909 1.825
0.76930958 -0.19111909 1.825
0.778386 -0.1925852 1.839
0.7815609 -0.1925852 1.839
0.7847358 -0.1925852 1.839
0.78791064 -0.1925852 1.839
0.79108554 -0.1925852 1.839
0.78821391 -0.19111909 1.825
0.79136461 -0.19111909 1.825
0.80061018 -0.1925852 1.839
0.80378509 -0.1925852 1.839
0.80081671 -0.19111909 1.825
0.80396742 -0.19111909 1.825
0.80711818 -0.19111909 1.825
0.81026888 -0.19111909 1.825
0.81341958 -0.19111909 1.825
0.81657028 -0.19111909 1.825
0.81972098 -0.19111909 1.825
0.82918411 -0.1925852 1.839
0.83235902 -0.1925852 1.839
0.83553392 -0.1925852 1.839
0.83870876 -0.1925852 1.839
0.83547455 -0.19111909 1.825
0.84505856 -0.1925852 1.839
0.8482334 -0.1925852 1.839
0.84492671 -0.19111909 1.825
0.8545832 -0.1925852 1.839
0.8577581 -0.1925852 1.839
0.86093295 -0.1925852 1.839
0.86410785 -0.1925852 1.839
0.86728275 -0.1925852 1.839
0.87045759 -0.1925852 1.839
0.87363249 -0.1925852 1.839
0.87680739 -0.1925852 1.839
0.87998223 -0.1925852 1.839
0.88315713 -0.1925852 1.839
0.89259756 -0.1939466 1.852
0.89579487 -0.1939466 1.852
0.89899224 -0.1939466 1.852
0.90218955 -0.1939466 1.852
0.90538687 -0.1939466 1.852
0.90858418 -0.1939466 1.852
0.91178149 -0.1939466 1.852
-0.47096428 -0.096610591 0.93800002
-0.46934491 -0.096610591 0.93800002
-0.46922144 -0.096919574 0.94099998
-0.46759689 -0.096919574 0.94099998
-0.46795309 -0.097331561 0.94499999
-0.46632162 -0.097331561 0.94499999
-0.46469015 -0.097331561 0.94499999
-0.46305868 -0.097331561 0.94499999
-0.46142721 -0.097331561 0.94499999
-0.46125543 -0.097640552 0.94800001
-0.45961878 -0.097640552 0.94800001
-0.45798215 -0.097640552 0.94800001
-0.4563455 -0.097640552 0.94800001
-0.45470884 -0.097640552 0.94800001
-0.45498392 -0.098052539 0.95200002
-0.45334035 -0.098052539 0.95200002
-0.45169681 -0.098052539 0.95200002
-0.45005324 -0.098052539 0.95200002
-0.44840971 -0.098052539 0.95200002
-0.4486433 -0.098464519 0.95599997
-0.44699284 -0.098464519 0.95599997
-0.44534239 -0.098464519 0.95599997
-0.44369194 -0.098464519 0.95599997
-0.44204149 -0.098464519 0.95599997
-0.44039103 -0.098464519 0.95599997
-0.44011739 -0.098773509 0.95899999
-0.43846175 -0.098773509 0.95899999
-0.43680611 -0.098773509 0.95899999
-0.43515047 -0.098773509 0.95899999
-0.43349484 -0.098773509 0.95899999
-0.43364042 -0.099185497 0.963
-0.43197787 -0.099185497 0.963
-0.43031535 -0.099185497 0.963
-0.42865279 -0.099185497 0.963
-0.42699024 -0.099185497 0.963
-0.42532772 -0.099185497 0.963
-0.42542496 -0.099597484 0.96700001
-0.4237555 -0.099597484 0.96700001
-0.42208606 -0.099597484 0.96700001
-0.42041662 -0.099597484 0.96700001
-0.41874716 -0.099597484 0.96700001
-0.41707772 -0.099597484 0.96700001
-0.41669703 -0.099906474 0.97000003
-0.4150224 -0.099906474 0.97000003
-0.41334778 -0.099906474 0.97000003
-0.41167316 -0.099906474 0.97000003
-0.40999854 -0.099906474 0.97000003
-0.40832391 -0.099906474 0.97000003
-0.40664929 -0.099906474 0.97000003
-0.40664464 -0.10031845 0.97399998
-0.40496311 -0.10031845 0.97399998
-0.40328157 -0.10031845 0.97399998
-0.40160003 -0.10031845 0.97399998
-0.3999185 -0.10031845 0.97399998
-0.39823699 -0.10031845 0.97399998
-0.39655545 -0.10031845 0.97399998
-0.39487392 -0.10031845 0.97399998
-0.39480713 -0.10073044 0.97799999
-0.39151084 -0.10031845 0.97399998
-0.38982934 -0.10031845 0.97399998
-0.38974184 -0.10073044 0.97799999
-0.38805339 -0.10073044 0.97799999
-0.38636497 -0.10073044 0.97799999
-0.38467652 -0.10073044 0.97799999
-0.3829881 -0.10073044 0.97799999
-0.38129964 -0.10073044 0.97799999
-0.37961122 -0.10073044 0.97799999
-0.37792277 -0.10073044 0.97799999
-0.37623435 -0.10073044 0.97799999
-0.3745459 -0.10073044 0.97799999
-0.37285745 -0.10073044 0.97799999
-0.37116903 -0.10073044 0.97799999
-0.37099177 -0.10114243 0.98199999
-0.36929643 -0.10114243 0.98199999
-0.36760107 -0.10114243 0.98199999
-0.36590573 -0.10114243 0.98199999
-0.3642104 -0.10114243 0.98199999
-0.36399171 -0.10155442 0.986
-0.36375919 -0.1019664 0.99000001
-0.36205003 -0.1019664 0.99000001
-0.36034086 -0.1019664 0.99000001
-0.35863173 -0.1019664 0.99000001
-0.35692257 -0.1019664 0.99000001
-0.3552134 -0.1019664 0.99000001
-0.35350427 -0.1019664 0.99000001
-0.35179511 -0.1019664 0.99000001
-0.35008594 -0.1019664 0.99000001
-0.34837681 -0.1019664 0.99000001
-0.34666765 -0.1019664 0.99000001
-0.34495848 -0.1019664 0.99000001
-0.34324935 -0.1019664 0.99000001
-0.34154019 -0.1019664 0.99000001
-0.34375784 -0.10526228 1.022
-0.34199345 -0.10526228 1.022
-0.33756584 -0.10443832 1.0140001
-0.32786694 -0.1019664 0.99000001
-0.32615781 -0.1019664 0.99000001
-0.32707044 -0.10279037 0.99800003
-0.32273948 -0.1019664 0.99000001
-0.32103035 -0.1019664 0.99000001
-0.31932119 -0.1019664 0.99000001
-0.023582825 -0.20599273 2
-0.020129988 -0.20599273 2
-0.016677152 -0.20599273 2
-0.013224317 -0.20599273 2
-0.0097714812 -0.20599273 2
-0.0063186451 -0.20599273 2
-0.002865809 -0.20599273 2
0.000587027 -0.20599273 2
0.0040398631 -0.20599273 2
0.0074926987 -0.20599273 2
0.010945534 -0.20599273 2
0.014398371 -0.20599273 2
0.017851207 -0.20599273 2
0.021304043 -0.20599273 2
0.024558824 -0.20434478 1.984
0.027984036 -0.20434478 1.984
0.03166255 -0.20599273 2
0.035115387 -0.20599273 2
0.038568221 -0.20599273 2
0.041684888 -0.20434478 1.984
0.045110103 -0.20434478 1.984
0.048535317 -0.20434478 1.984
0.051960528 -0.20434478 1.984
0.055385742 -0.20434478 1.984
0.058810957 -0.20434478 1.984
0.062738076 -0.20599273 2
0.065661378 -0.20434478 1.984
0.069086596 -0.20434478 1.984
0.073096581 -0.20599273 2
0.076549418 -0.20599273 2
0.080002256 -0.20599273 2
0.083455086 -0.20599273 2
0.086907923 -0.20599273 2
0.090360761 -0.20599273 2
0.093813598 -0.20599273 2
0.097266436 -0.20599273 2
0.099913515 -0.20434478 1.984
0.1041721 -0.20599273 2
0.10762494 -0.20599273 2
0.11107778 -0.20599273 2
0.11453062 -0.20599273 2
0.11798345 -0.20599273 2
0.12143628 -0.20599273 2
0.12488912 -0.20599273 2
0.12834196 -0.20599273 2
0.1317948 -0.20599273 2
0.13524763 -0.20599273 2
0.13870047 -0.20599273 2
0.14215329 -0.20599273 2
0.14444129 -0.20434478 1.984
0.1478665 -0.20434478 1.984
0.15129171 -0.20434478 1.984
0.15471692 -0.20434478 1.984
0.15814213 -0.20434478 1.984
0.16156735 -0.20434478 1.984
0.16499257 -0.20434478 1.984
0.16841778 -0.20434478 1.984
0.17184299 -0.20434478 1.984
0.1752682 -0.20434478 1.984
0.17869341 -0.20434478 1.984
0.18211862 -0.20434478 1.984
0.18554385 -0.20434478 1.984
0.18896906 -0.20434478 1.984
0.19239427 -0.20434478 1.984
0.19581948 -0.20434478 1.984
0.19924469 -0.20434478 1.984
0.20430435 -0.20599273 2
0.20609513 -0.20434478 1.984
0.20952034 -0.20434478 1.984
0.21294555 -0.20434478 1.984
0.21637076 -0.20434478 1.984
0.21979597 -0.20434478 1.984
0.22322118 -0.20434478 1.984
0.22664641 -0.20434478 1.984
0.23007162 -0.20434478 1.984
0.23349683 -0.20434478 1.984
0.23692204 -0.20434478 1.984
0.24034725 -0.20434478 1.984
0.24192943 -0.20279984 1.969
0.24532875 -0.20279984 1.969
0.2506229 -0.20434478 1.984
0.25212738 -0.20279984 1.969
0.25552669 -0.20279984 1.969
0.26089853 -0.20434478 1.984
0.26432374 -0.20434478 1.984
0.26774895 -0.20434478 1.984
0.27117416 -0.20434478 1.984
0.27459937 -0.20434478 1.984
0.27802461 -0.20434478 1.984
0.28144982 -0.20434478 1.984
0.28487504 -0.20434478 1.984
0.28830025 -0.20434478 1.984
0.29172546 -0.20434478 1.984
0.29515067 -0.20434478 1.984
0.29857588 -0.20434478 1.984
0.30200109 -0.20434478 1.984
0.3054263 -0.20434478 1.984
0.30885151 -0.20434478 1.984
0.30991578 -0.20279984 1.969
0.31331509 -0.20279984 1.969
0.31912717 -0.20434478 1.984
0.32255238 -0.20434478 1.984
0.32597759 -0.20434478 1.984
0.3294028 -0.20434478 1.984
0.33282802 -0.20434478 1.984
0.33625323 -0.20434478 1.984
0.33967844 -0.20434478 1.984
0.34310365 -0.20434478 1.984
0.34652886 -0.20434478 1.984
0.34995407 -0.20434478 1.984
0.35337928 -0.20434478 1.984
0.35680449 -0.20434478 1.984
0.3602297 -0.20434478 1.984
0.36365494 -0.20434478 1.984
0.37004048 -0.20599273 2
0.37050536 -0.20434478 1.984
0.37694615 -0.20599273 2
0.38039899 -0.20599273 2
0.38385183 -0.20599273 2
0.38730466 -0.20599273 2
0.3907575 -0.20599273 2
0.39421031 -0.20599273 2
0.39766315 -0.20599273 2
0.40111598 -0.20599273 2
0.40133226 -0.20434478 1.984
0.40802166 -0.20599273 2
0.4114745 -0.20599273 2
0.41492733 -0.20599273 2
0.41838017 -0.20599273 2
0.42183301 -0.20599273 2
0.42528585 -0.20599273 2
0.42873868 -0.20599273 2
0.43219152 -0.20599273 2
0.4391295 -0.20764068 2.016
0.44260997 -0.20764068 2.016
0.44963083 -0.20928861 2.0320001
0.45313892 -0.20928861 2.0320001
0.45664701 -0.20928861 2.0320001
0.46400478 -0.21103956 2.049
0.46754223 -0.21103956 2.049
0.46717125 -0.20928861 2.0320001
0.47461709 -0.21103956 2.049
0.47815451 -0.21103956 2.049
0.48169196 -0.21103956 2.049
0.48522937 -0.21103956 2.049
0.48876682 -0.21103956 2.049
0.49230424 -0.21103956 2.049
0.49584168 -0.21103956 2.049
0.4993791 -0.21103956 2.049
0.50291651 -0.21103956 2.049
0.50645399 -0.21103956 2.049
0.50999141 -0.21103956 2.049
0.51352882 -0.21103956 2.049
0.51706624 -0.21103956 2.049
0.52060366 -0.21103956 2.049
0.52414113 -0.21103956 2.049
0.52767855 -0.21103956 2.049
0.53121597 -0.21103956 2.049
0.53031671 -0.20928861 2.0320001
0.53829086 -0.21103956 2.049
0.54182827 -0.21103956 2.049
0.54536569 -0.21103956 2.049
0.54890311 -0.21103956 2.049
0.55244058 -0.21103956 2.049
0.555978 -0.21103956 2.049
0.55951542 -0.21103956 2.049
0.56305283 -0.21103956 2.049
0.56659031 -0.21103956 2.049
0.57012773 -0.21103956 2.049
0.57366514 -0.21103956 2.049
0.58199143 -0.21279049 2.066
0.58555824 -0.21279049 2.066
0.58912504 -0.21279049 2.066
0.59269178 -0.21279049 2.066
0.61914551 -0.21454142 2.0829999
0.62782401 -0.21629235 2.0999999
0.63144946 -0.21629235 2.0999999
0.63507497 -0.21629235 2.0999999
0.64417505 -0.21814631 2.118
0.64232588 -0.21629235 2.0999999
0.64595139 -0.21629235 2.0999999
0.64957684 -0.21629235 2.0999999
0.65320235 -0.21629235 2.0999999
0.65151066 -0.21454142 2.0829999
0.66045332 -0.21629235 2.0999999
0.65870291 -0.21454142 2.0829999
0.7160269 -0.22000022 2.1359999
0.72577959 -0.22185418 2.154
0.72340214 -0.22000022 2.1359999
0.733217 -0.22185418 2.154
0.73077744 -0.22000022 2.1359999
0.73446506 -0.22000022 2.1359999
0.70275104 -0.20434478 1.984
0.70617622 -0.20434478 1.984
0.71102339 -0.198062 1.923
0.71434331 -0.198062 1.923
0.7124384 -0.19662006 1.909
0.71011025 -0.19507512 1.8940001
0.7133801 -0.19507512 1.8940001
0.71135259 -0.19363317 1.88
0.7145983 -0.19363317 1.88
0.71784395 -0.19363317 1.88
0.71571982 -0.19219123 1.8660001
0.71894133 -0.19219123 1.8660001
0.71171349 -0.18941031 1.839
0.70944607 -0.18796837 1.825
0.71259677 -0.18796837 1.825
0.71574748 -0.18796837 1.825
0.71889818 -0.18796837 1.825
0.72204894 -0.18796837 1.825
0.72519964 -0.18796837 1.825
0.72835034 -0.18796837 1.825
0.73150104 -0.18796837 1.825
0.73465174 -0.18796837 1.825
0.73780245 -0.18796837 1.825
0.74095321 -0.18796837 1.825
0.74410391 -0.18796837 1.825
0.74725461 -0.18796837 1.825
0.75040531 -0.18796837 1.825
0.75355601 -0.18796837 1.825
0.75670677 -0.18796837 1.825
0.75985748 -0.18796837 1.825
0.76300818 -0.18796837 1.825
0.76615888 -0.18796837 1.825
0.76930958 -0.18796837 1.825
0.77246034 -0.18796837 1.825
0.77561104 -0.18796837 1.825
0.77876174 -0.18796837 1.825
0.78791064 -0.18941031 1.839
0.79108554 -0.18941031 1.839
0.78821391 -0.18796837 1.825
0.79136461 -0.18796837 1.825
0.80061018 -0.18941031 1.839
0.80378509 -0.18941031 1.839
0.80081671 -0.18796837 1.825
0.80396742 -0.18796837 1.825
0.80711818 -0.18796837 1.825
0.81026888 -0.18796837 1.825
0.81341958 -0.18796837 1.825
0.81657028 -0.18796837 1.825
0.81972098 -0.18796837 1.825
0.82287174 -0.18796837 1.825
0.82602245 -0.18796837 1.825
0.83553392 -0.18941031 1.839
0.83870876 -0.18941031 1.839
0.83547455 -0.18796837 1.825
0.84505856 -0.18941031 1.839
0.8482334 -0.18941031 1.839
0.84492671 -0.18796837 1.825
0.8545832 -0.18941031 1.839
0.8577581 -0.18941031 1.839
0.86093295 -0.18941031 1.839
0.86410785 -0.18941031 1.839
0.86728275 -0.18941031 1.839
0.87045759 -0.18941031 1.839
0.87363249 -0.18941031 1.839
0.87680739 -0.18941031 1.839
0.87998223 -0.18941031 1.839
0.88315713 -0.18941031 1.839
0.89259756 -0.19074927 1.852
0.89579487 -0.19074927 1.852
0.89268178 -0.18941031 1.839
0.89585668 -0.18941031 1.839
0.90538687 -0.19074927 1.852
0.90858418 -0.19074927 1.852
-0.47096428 -0.094991215 0.93800002
-0.46934491 -0.094991215 0.93800002
-0.46922144 -0.095295019 0.94099998
-0.46759689 -0.095295019 0.94099998
-0.4659723 -0.095295019 0.94099998
-0.46434775 -0.095295019 0.94099998
-0.46469015 -0.0957001 0.94499999
-0.46305868 -0.0957001 0.94499999
-0.46142721 -0.0957001 0.94499999
-0.46125543 -0.096003912 0.94800001
-0.45961878 -0.096003912 0.94800001
-0.45798215 -0.096003912 0.94800001
-0.4563455 -0.096003912 0.94800001
-0.45470884 -0.096003912 0.94800001
-0.45498392 -0.096408993 0.95200002
-0.45334035 -0.096408993 0.95200002
-0.45169681 -0.096408993 0.95200002
-0.45005324 -0.096408993 0.95200002
-0.44840971 -0.096408993 0.95200002
-0.4486433 -0.096814066 0.95599997
-0.44699284 -0.096814066 0.95599997
-0.44534239 -0.096814066 0.95599997
-0.44369194 -0.096814066 0.95599997
-0.44204149 -0.096814066 0.95599997
-0.44039103 -0.096814066 0.95599997
-0.44011739 -0.097117878 0.95899999
-0.43846175 -0.097117878 0.95899999
-0.43680611 -0.097117878 0.95899999
-0.4369655 -0.097522959 0.963
-0.43530294 -0.097522959 0.963
-0.43364042 -0.097522959 0.963
-0.43197787 -0.097522959 0.963
-0.43031535 -0.097522959 0.963
-0.42865279 -0.097522959 0.963
-0.42699024 -0.097522959 0.963
-0.42532772 -0.097522959 0.963
-0.42542496 -0.09792804 0.96700001
-0.4237555 -0.09792804 0.96700001
-0.42208606 -0.09792804 0.96700001
-0.42041662 -0.09792804 0.96700001
-0.41874716 -0.09792804 0.96700001
-0.41837165 -0.098231852 0.97000003
-0.41669703 -0.098231852 0.97000003
-0.4150224 -0.098231852 0.97000003
-0.41334778 -0.098231852 0.97000003
-0.41167316 -0.098231852 0.97000003
-0.41168922 -0.098636925 0.97399998
-0.41000769 -0.098636925 0.97399998
-0.40832618 -0.098636925 0.97399998
-0.40664464 -0.098636925 0.97399998
-0.40496311 -0.098636925 0.97399998
-0.40328157 -0.098636925 0.97399998
-0.40160003 -0.098636925 0.97399998
-0.3999185 -0.098636925 0.97399998
-0.39823699 -0.098636925 0.97399998
-0.39655545 -0.098636925 0.97399998
-0.39649558 -0.099042006 0.97799999
-0.39480713 -0.099042006 0.97799999
-0.39151084 -0.098636925 0.97399998
-0.39143026 -0.099042006 0.97799999
-0.38974184 -0.099042006 0.97799999
-0.38805339 -0.099042006 0.97799999
-0.38636497 -0.099042006 0.97799999
-0.38467652 -0.099042006 0.97799999
-0.3829881 -0.099042006 0.97799999
-0.38129964 -0.099042006 0.97799999
-0.37961122 -0.099042006 0.97799999
-0.37792277 -0.099042006 0.97799999
-0.37623435 -0.099042006 0.97799999
-0.3760778 -0.099447086 0.98199999
-0.37285745 -0.099042006 0.97799999
-0.37116903 -0.099042006 0.97799999
-0.37099177 -0.099447086 0.98199999
-0.36929643 -0.099447086 0.98199999
-0.36760107 -0.099447086 0.98199999
-0.36739618 -0.099852167 0.986
-0.36569393 -0.099852167 0.986
-0.36399171 -0.099852167 0.986
-0.36375919 -0.10025725 0.99000001
-0.36205003 -0.10025725 0.99000001
-0.36034086 -0.10025725 0.99000001
-0.35863173 -0.10025725 0.99000001
-0.35692257 -0.10025725 0.99000001
-0.3552134 -0.10025725 0.99000001
-0.35350427 -0.10025725 0.99000001
-0.35179511 -0.10025725 0.99000001
-0.35008594 -0.10025725 0.99000001
-0.34837681 -0.10025725 0.99000001
-0.34666765 -0.10025725 0.99000001
-0.34495848 -0.10025725 0.99000001
-0.34324935 -0.10025725 0.99000001
-0.34154019 -0.10025725 0.99000001
-0.34257713 -0.10106741 0.99800003
-0.34375784 -0.10349788 1.022
-0.34199345 -0.10349788 1.022
-0.34022906 -0.10349788 1.022
-0.33581525 -0.10268773 1.0140001
-0.33406466 -0.10268773 1.0140001
-0.33493584 -0.10349788 1.022
-0.023582825 -0.20253989 2
-0.020129988 -0.20253989 2
-0.016677152 -0.20253989 2
-0.013224317 -0.20253989 2
-0.0097714812 -0.20253989 2
-0.0063186451 -0.20253989 2
-0.002865809 -0.20253989 2
0.000587027 -0.20253989 2
0.0040398631 -0.20253989 2
0.0074926987 -0.20253989 2
0.010945534 -0.20253989 2
0.014398371 -0.20253989 2
0.017851207 -0.20253989 2
0.021304043 -0.20253989 2
0.024756879 -0.20253989 2
0.027984036 -0.20091957 1.984
0.031409249 -0.20091957 1.984
0.035115387 -0.20253989 2
0.038568221 -0.20253989 2
0.041684888 -0.20091957 1.984
0.045110103 -0.20091957 1.984
0.048535317 -0.20091957 1.984
0.051960528 -0.20091957 1.984
0.055385742 -0.20091957 1.984
0.058810957 -0.20091957 1.984
0.062236167 -0.20091957 1.984
0.065661378 -0.20091957 1.984
0.069086596 -0.20091957 1.984
0.073096581 -0.20253989 2
0.075937018 -0.20091957 1.984
0.080002256 -0.20253989 2
0.083455086 -0.20253989 2
0.086212657 -0.20091957 1.984
0.090360761 -0.20253989 2
0.093063086 -0.20091957 1.984
0.097266436 -0.20253989 2
0.099913515 -0.20091957 1.984
0.1041721 -0.20253989 2
0.10762494 -0.20253989 2
0.11107778 -0.20253989 2
0.11453062 -0.20253989 2
0.11798345 -0.20253989 2
0.12143628 -0.20253989 2
0.12488912 -0.20253989 2
0.12731522 -0.20091957 1.984
0.1317948 -0.20253989 2
0.13524763 -0.20253989 2
0.13870047 -0.20253989 2
0.14215329 -0.20253989 2
0.14444129 -0.20091957 1.984
0.14905897 -0.20253989 2
0.15129171 -0.20091957 1.984
0.15471692 -0.20091957 1.984
0.15814213 -0.20091957 1.984
0.16156735 -0.20091957 1.984
0.16499257 -0.20091957 1.984
0.16841778 -0.20091957 1.984
0.17184299 -0.20091957 1.984
0.1752682 -0.20091957 1.984
0.17869341 -0.20091957 1.984
0.18211862 -0.20091957 1.984
0.18704017 -0.20253989 2
0.190493 -0.20253989 2
0.19394584 -0.20253989 2
0.19739868 -0.20253989 2
0.20085151 -0.20253989 2
0.2026699 -0.20091957 1.984
0.20609513 -0.20091957 1.984
0.20952034 -0.20091957 1.984
0.21294555 -0.20091957 1.984
0.21637076 -0.20091957 1.984
0.21979597 -0.20091957 1.984
0.22322118 -0.20091957 1.984
0.22664641 -0.20091957 1.984
0.23007162 -0.20091957 1.984
0.23349683 -0.20091957 1.984
0.23692204 -0.20091957 1.984
0.24034725 -0.20091957 1.984
0.24377246 -0.20091957 1.984
0.24532875 -0.19940053 1.969
0.2506229 -0.20091957 1.984
0.25404811 -0.20091957 1.984
0.25747332 -0.20091957 1.984
0.26089853 -0.20091957 1.984
0.26432374 -0.20091957 1.984
0.26774895 -0.20091957 1.984
0.27117416 -0.20091957 1.984
0.27459937 -0.20091957 1.984
0.27802461 -0.20091957 1.984
0.28144982 -0.20091957 1.984
0.28487504 -0.20091957 1.984
0.28830025 -0.20091957 1.984
0.29172546 -0.20091957 1.984
0.29515067 -0.20091957 1.984
0.29857588 -0.20091957 1.984
0.30200109 -0.20091957 1.984
0.3054263 -0.20091957 1.984
0.30885151 -0.20091957 1.984
0.30991578 -0.19940053 1.969
0.31570193 -0.20091957 1.984
0.31912717 -0.20091957 1.984
0.32255238 -0.20091957 1.984
0.32597759 -0.20091957 1.984
0.3294028 -0.20091957 1.984
0.33282802 -0.20091957 1.984
0.333711 -0.19940053 1.969
0.33967844 -0.20091957 1.984
0.34310365 -0.20091957 1.984
0.34652886 -0.20091957 1.984
0.34995407 -0.20091957 1.984
0.35337928 -0.20091957 1.984
0.35680449 -0.20091957 1.984
0.3602297 -0.20091957 1.984
0.36365494 -0.20091957 1.984
0.36708015 -0.20091957 1.984
0.37050536 -0.20091957 1.984
0.37393057 -0.20091957 1.984
0.37735578 -0.20091957 1.984
0.38385183 -0.20253989 2
0.38730466 -0.20253989 2
0.3907575 -0.20253989 2
0.39421031 -0.20253989 2
0.39448184 -0.20091957 1.984
0.39790705 -0.20091957 1.984
0.40133226 -0.20091957 1.984
0.40802166 -0.20253989 2
0.4114745 -0.20253989 2
0.41492733 -0.20253989 2
0.41838017 -0.20253989 2
0.42183301 -0.20253989 2
0.42528585 -0.20253989 2
0.42873868 -0.20253989 2
0.43219152 -0.20253989 2
0.4391295 -0.20416021 2.016
0.44260997 -0.20416021 2.016
0.44609043 -0.20416021 2.016
0.45692995 -0.20750213 2.049
0.47107965 -0.20750213 2.049
0.47461709 -0.20750213 2.049
0.47815451 -0.20750213 2.049
0.48169196 -0.20750213 2.049
0.48522937 -0.20750213 2.049
0.48876682 -0.20750213 2.049
0.49584168 -0.20750213 2.049
0.4993791 -0.20750213 2.049
0.50708908 -0.2092237 2.066
0.51065588 -0.2092237 2.066
0.51422262 -0.2092237 2.066
0.54536569 -0.20750213 2.049
0.54890311 -0.20750213 2.049
0.55244058 -0.20750213 2.049
0.555978 -0.20750213 2.049
0.55951542 -0.20750213 2.049
0.56305283 -0.20750213 2.049
0.56659031 -0.20750213 2.049
0.57012773 -0.20750213 2.049
0.57842469 -0.2092237 2.066
0.58199143 -0.2092237 2.066
0.58912504 -0.2092237 2.066
0.59269178 -0.2092237 2.066
0.61694759 -0.21266688 2.0999999
0.62057304 -0.21266688 2.0999999
0.6241985 -0.21266688 2.0999999
0.62274164 -0.21094529 2.0829999
0.62633777 -0.21094529 2.0829999
0.62993389 -0.21094529 2.0829999
0.63353002 -0.21094529 2.0829999
0.63712615 -0.21094529 2.0829999
0.63549316 -0.2092237 2.066
0.6390599 -0.2092237 2.066
0.64257532 -0.20578054 2.0320001
0.72708976 -0.2163126 2.1359999
0.71102339 -0.1947421 1.923
0.71434331 -0.1947421 1.923
0.70684046 -0.19180529 1.8940001
0.71011025 -0.19180529 1.8940001
0.7133801 -0.19180529 1.8940001
0.71135259 -0.1903875 1.88
0.7145983 -0.1903875 1.88
0.71784395 -0.1903875 1.88
0.7210896 -0.1903875 1.88
0.71894133 -0.18896973 1.8660001
0.71171349 -0.18623543 1.839
0.70944607 -0.18481766 1.825
0.71259677 -0.18481766 1.825
0.71574748 -0.18481766 1.825
0.71889818 -0.18481766 1.825
0.72204894 -0.18481766 1.825
0.72519964 -0.18481766 1.825
0.72835034 -0.18481766 1.825
0.73150104 -0.18481766 1.825
0.73465174 -0.18481766 1.825
0.73780245 -0.18481766 1.825
0.74095321 -0.18481766 1.825
0.74410391 -0.18481766 1.825
0.74725461 -0.18481766 1.825
0.75040531 -0.18481766 1.825
0.75355601 -0.18481766 1.825
0.75670677 -0.18481766 1.825
0.75985748 -0.18481766 1.825
0.76300818 -0.18481766 1.825
0.76615888 -0.18481766 1.825
0.76930958 -0.18481766 1.825
0.77246034 -0.18481766 1.825
0.77561104 -0.18481766 1.825
0.77876174 -0.18481766 1.825
0.78791064 -0.18623543 1.839
0.79108554 -0.18623543 1.839
0.78821391 -0.18481766 1.825
0.79136461 -0.18481766 1.825
0.79451531 -0.18481766 1.825
0.79766601 -0.18481766 1.825
0.80081671 -0.18481766 1.825
0.80396742 -0.18481766 1.825
0.80711818 -0.18481766 1.825
0.81026888 -0.18481766 1.825
0.81341958 -0.18481766 1.825
0.81657028 -0.18481766 1.825
0.81972098 -0.18481766 1.825
0.82287174 -0.18481766 1.825
0.82602245 -0.18481766 1.825
0.82917315 -0.18481766 1.825
0.83870876 -0.18623543 1.839
0.83547455 -0.18481766 1.825
0.84505856 -0.18623543 1.839
0.8482334 -0.18623543 1.839
0.84492671 -0.18481766 1.825
0.8545832 -0.18623543 1.839
0.8577581 -0.18623543 1.839
0.86093295 -0.18623543 1.839
0.86410785 -0.18623543 1.839
0.86728275 -0.18623543 1.839
0.87045759 -0.18623543 1.839
0.87363249 -0.18623543 1.839
0.87680739 -0.18623543 1.839
0.87998223 -0.18623543 1.839
0.88315713 -0.18623543 1.839
0.89259756 -0.18755195 1.852
0.89579487 -0.18755195 1.852
0.89268178 -0.18623543 1.839
0.89585668 -0.18623543 1.839
0.89903158 -0.18623543 1.839
-0.47096428 -0.093371831 0.93800002
-0.46934491 -0.093371831 0.93800002
-0.46922144 -0.093670458 0.94099998
-0.46759689 -0.093670458 0.94099998
-0.4659723 -0.093670458 0.94099998
-0.46632162 -0.094068632 0.94499999
-0.46469015 -0.094068632 0.94499999
-0.46305868 -0.094068632 0.94499999
-0.46142721 -0.094068632 0.94499999
-0.46125543 -0.094367266 0.94800001
-0.45961878 -0.094367266 0.94800001
-0.45798215 -0.094367266 0.94800001
-0.4563455 -0.094367266 0.94800001
-0.45470884 -0.094367266 0.94800001
-0.45498392 -0.09476544 0.95200002
-0.45334035 -0.09476544 0.95200002
-0.45169681 -0.09476544 0.95200002
-0.45005324 -0.09476544 0.95200002
-0.44840971 -0.09476544 0.95200002
-0.4486433 -0.095163614 0.95599997
-0.44699284 -0.095163614 0.95599997
-0.44534239 -0.095163614 0.95599997
-0.44369194 -0.095163614 0.95599997
-0.44204149 -0.095163614 0.95599997
-0.44039103 -0.095163614 0.95599997
-0.44011739 -0.09546224 0.95899999
-0.43846175 -0.09546224 0.95899999
-0.43680611 -0.09546224 0.95899999
-0.4369655 -0.095860414 0.963
-0.43530294 -0.095860414 0.963
-0.43364042 -0.095860414 0.963
-0.43197787 -0.095860414 0.963
-0.43031535 -0.095860414 0.963
-0.42865279 -0.095860414 0.963
-0.42699024 -0.095860414 0.963
-0.42532772 -0.095860414 0.963
-0.42366517 -0.095860414 0.963
-0.4237555 -0.096258596 0.96700001
-0.42208606 -0.096258596 0.96700001
-0.42041662 -0.096258596 0.96700001
-0.41874716 -0.096258596 0.96700001
-0.41837165 -0.096557222 0.97000003
-0.41669703 -0.096557222 0.97000003
-0.4150224 -0.096557222 0.97000003
-0.41334778 -0.096557222 0.97000003
-0.41337076 -0.096955396 0.97399998
-0.41168922 -0.096955396 0.97399998
-0.41000769 -0.096955396 0.97399998
-0.40832618 -0.096955396 0.97399998
-0.40664464 -0.096955396 0.97399998
-0.40496311 -0.096955396 0.97399998
-0.40328157 -0.096955396 0.97399998
-0.40160003 -0.096955396 0.97399998
-0.3999185 -0.096955396 0.97399998
-0.39823699 -0.096955396 0.97399998
-0.398184 -0.09735357 0.97799999
-0.39649558 -0.09735357 0.97799999
-0.39480713 -0.09735357 0.97799999
-0.39311871 -0.09735357 0.97799999
-0.39143026 -0.09735357 0.97799999
-0.38974184 -0.09735357 0.97799999
-0.38805339 -0.09735357 0.97799999
-0.38636497 -0.09735357 0.97799999
-0.38467652 -0.09735357 0.97799999
-0.3829881 -0.09735357 0.97799999
-0.38129964 -0.09735357 0.97799999
-0.37961122 -0.09735357 0.97799999
-0.37792277 -0.09735357 0.97799999
-0.37623435 -0.09735357 0.97799999
-0.3745459 -0.09735357 0.97799999
-0.37285745 -0.09735357 0.97799999
-0.37116903 -0.09735357 0.97799999
-0.37099177 -0.097751744 0.98199999
-0.36929643 -0.097751744 0.98199999
-0.36760107 -0.097751744 0.98199999
-0.36739618 -0.098149918 0.986
-0.36569393 -0.098149918 0.986
-0.36546832 -0.098548092 0.99000001
-0.36375919 -0.098548092 0.99000001
-0.36205003 -0.098548092 0.99000001
-0.36034086 -0.098548092 0.99000001
-0.35863173 -0.098548092 0.99000001
-0.35692257 -0.098548092 0.99000001
-0.3552134 -0.098548092 0.99000001
-0.35350427 -0.098548092 0.99000001
-0.35179511 -0.098548092 0.99000001
-0.35008594 -0.098548092 0.99000001
-0.34837681 -0.098548092 0.99000001
-0.34666765 -0.098548092 0.99000001
-0.34495848 -0.098548092 0.99000001
-0.34324935 -0.098548092 0.99000001
-0.34154019 -0.098548092 0.99000001
-0.33983102 -0.098548092 0.99000001
-0.34085417 -0.099344447 0.99800003
-0.34375784 -0.10173348 1.022
-0.34199345 -0.10173348 1.022
-0.34022906 -0.10173348 1.022
-0.33846465 -0.10173348 1.022
-0.33670026 -0.10173348 1.022
-0.33493584 -0.10173348 1.022
-0.33317146 -0.10173348 1.022
-0.023394162 -0.19749436 1.984
-0.020129988 -0.19908705 2
-0.016677152 -0.19908705 2
-0.013224317 -0.19908705 2
-0.0097714812 -0.19908705 2
-0.0063186451 -0.19908705 2
-0.002865809 -0.19908705 2
0.000587027 -0.19908705 2
0.0040398631 -0.19908705 2
0.0074926987 -0.19908705 2
0.010945534 -0.19908705 2
0.014398371 -0.19908705 2
0.017851207 -0.19908705 2
0.021304043 -0.19908705 2
0.024756879 -0.19908705 2
0.027984036 -0.19749436 1.984
0.031409249 -0.19749436 1.984
0.035115387 -0.19908705 2
0.038568221 -0.19908705 2
0.041684888 -0.19749436 1.984
0.045110103 -0.19749436 1.984
0.048535317 -0.19749436 1.984
0.051960528 -0.19749436 1.984
0.055385742 -0.19749436 1.984
0.058810957 -0.19749436 1.984
0.062236167 -0.19749436 1.984
0.065661378 -0.19749436 1.984
0.069086596 -0.19749436 1.984
0.072511807 -0.19749436 1.984
0.075937018 -0.19749436 1.984
0.080002256 -0.19908705 2
0.083455086 -0.19908705 2
0.086212657 -0.19749436 1.984
0.089637876 -0.19749436 1.984
0.093813598 -0.19908705 2
0.097266436 -0.19908705 2
0.10071927 -0.19908705 2
0.1041721 -0.19908705 2
0.10762494 -0.19908705 2
0.11107778 -0.19908705 2
0.11361437 -0.19749436 1.984
0.11703958 -0.19749436 1.984
0.12143628 -0.19908705 2
0.12488912 -0.19908705 2
0.12731522 -0.19749436 1.984
0.13074043 -0.19749436 1.984
0.13524763 -0.19908705 2
0.13870047 -0.19908705 2
0.14215329 -0.19908705 2
0.14444129 -0.19749436 1.984
0.1478665 -0.19749436 1.984
0.15129171 -0.19749436 1.984
0.15471692 -0.19749436 1.984
0.15814213 -0.19749436 1.984
0.16156735 -0.19749436 1.984
0.16499257 -0.19749436 1.984
0.16977599 -0.19908705 2
0.17184299 -0.19749436 1.984
0.1752682 -0.19749436 1.984
0.17869341 -0.19749436 1.984
0.18358733 -0.19908705 2
0.18704017 -0.19908705 2
0.190493 -0.19908705 2
0.19394584 -0.19908705 2
0.19739868 -0.19908705 2
0.20085151 -0.19908705 2
0.20430435 -0.19908705 2
0.20609513 -0.19749436 1.984
0.20952034 -0.19749436 1.984
0.21294555 -0.19749436 1.984
0.21637076 -0.19749436 1.984
0.21979597 -0.19749436 1.984
0.22322118 -0.19749436 1.984
0.22664641 -0.19749436 1.984
0.22833216 -0.1960012 1.969
0.23349683 -0.19749436 1.984
0.23692204 -0.19749436 1.984
0.24034725 -0.19749436 1.984
0.24377246 -0.19749436 1.984
0.24719769 -0.19749436 1.984
0.2506229 -0.19749436 1.984
0.25404811 -0.19749436 1.984
0.25747332 -0.19749436 1.984
0.26089853 -0.19749436 1.984
0.26432374 -0.19749436 1.984
0.26774895 -0.19749436 1.984
0.27117416 -0.19749436 1.984
0.27459937 -0.19749436 1.984
0.28026673 -0.19908705 2
0.28144982 -0.19749436 1.984
0.28487504 -0.19749436 1.984
0.28830025 -0.19749436 1.984
0.29172546 -0.19749436 1.984
0.29515067 -0.19749436 1.984
0.29857588 -0.19749436 1.984
0.30200109 -0.19749436 1.984
0.3054263 -0.19749436 1.984
0.30885151 -0.19749436 1.984
0.31227672 -0.19749436 1.984
0.31570193 -0.19749436 1.984
0.31912717 -0.19749436 1.984
0.32255238 -0.19749436 1.984
0.32597759 -0.19749436 1.984
0.3294028 -0.19749436 1.984
0.33282802 -0.19749436 1.984
0.333711 -0.1960012 1.969
0.33711031 -0.1960012 1.969
0.34050962 -0.1960012 1.969
0.34652886 -0.19749436 1.984
0.34995407 -0.19749436 1.984
0.35337928 -0.19749436 1.984
0.35680449 -0.19749436 1.984
0.3602297 -0.19749436 1.984
0.36365494 -0.19749436 1.984
0.36708015 -0.19749436 1.984
0.37050536 -0.19749436 1.984
0.37393057 -0.19749436 1.984
0.37735578 -0.19749436 1.984
0.38078099 -0.19749436 1.984
0.38420621 -0.19749436 1.984
0.38763142 -0.19749436 1.984
0.39421031 -0.19908705 2
0.39448184 -0.19749436 1.984
0.39790705 -0.19749436 1.984
0.40133226 -0.19749436 1.984
0.40802166 -0.19908705 2
0.4114745 -0.19908705 2
0.41492733 -0.19908705 2
0.41838017 -0.19908705 2
0.42183301 -0.19908705 2
0.42528585 -0.19908705 2
0.42873868 -0.19908705 2
0.43219152 -0.19908705 2
0.43564436 -0.19908705 2
0.4390972 -0.19908705 2
0.44609043 -0.20067975 2.016
0.45313892 -0.20227246 2.0320001
0.46046737 -0.2039647 2.049
0.47815451 -0.2039647 2.049
0.48169196 -0.2039647 2.049
0.48522937 -0.2039647 2.049
0.49995553 -0.20565693 2.066
0.50352234 -0.20565693 2.066
0.50708908 -0.20565693 2.066
0.55244058 -0.2039647 2.049
0.63121146 -0.21262497 2.1359999
0.62954885 -0.21083319 2.118
0.62274164 -0.20734917 2.0829999
0.62633777 -0.20734917 2.0829999
0.62479281 -0.20565693 2.066
0.62835962 -0.20565693 2.066
0.63192636 -0.20565693 2.066
0.63026404 -0.2039647 2.049
0.63380146 -0.2039647 2.049
0.6970309 -0.18853545 1.8940001
0.70030075 -0.18853545 1.8940001
0.69836992 -0.18714184 1.88
0.70161563 -0.18714184 1.88
0.70486128 -0.18714184 1.88
0.70810694 -0.18714184 1.88
0.70605534 -0.18574823 1.8660001
0.7092768 -0.18574823 1.8660001
0.71784395 -0.18714184 1.88
0.71571982 -0.18574823 1.8660001
0.71354729 -0.18435462 1.852
0.71171349 -0.18306054 1.839
0.70944607 -0.18166694 1.825
0.71259677 -0.18166694 1.825
0.71574748 -0.18166694 1.825
0.71889818 -0.18166694 1.825
0.72204894 -0.18166694 1.825
0.72519964 -0.18166694 1.825
0.72835034 -0.18166694 1.825
0.73150104 -0.18166694 1.825
0.73465174 -0.18166694 1.825
0.73780245 -0.18166694 1.825
0.74095321 -0.18166694 1.825
0.74410391 -0.18166694 1.825
0.74725461 -0.18166694 1.825
0.75040531 -0.18166694 1.825
0.75355601 -0.18166694 1.825
0.75670677 -0.18166694 1.825
0.75985748 -0.18166694 1.825
0.76300818 -0.18166694 1.825
0.76615888 -0.18166694 1.825
0.76930958 -0.18166694 1.825
0.77246034 -0.18166694 1.825
0.7815609 -0.18306054 1.839
0.7847358 -0.18306054 1.839
0.78791064 -0.18306054 1.839
0.79108554 -0.18306054 1.839
0.78821391 -0.18166694 1.825
0.79136461 -0.18166694 1.825
0.79451531 -0.18166694 1.825
0.79766601 -0.18166694 1.825
0.80081671 -0.18166694 1.825
0.80396742 -0.18166694 1.825
0.80711818 -0.18166694 1.825
0.81026888 -0.18166694 1.825
0.81341958 -0.18166694 1.825
0.81657028 -0.18166694 1.825
0.81972098 -0.18166694 1.825
0.82287174 -0.18166694 1.825
0.82602245 -0.18166694 1.825
0.82917315 -0.18166694 1.825
0.83870876 -0.18306054 1.839
0.84188366 -0.18306054 1.839
0.84505856 -0.18306054 1.839
0.8482334 -0.18306054 1.839
0.8514083 -0.18306054 1.839
0.8545832 -0.18306054 1.839
0.8577581 -0.18306054 1.839
0.86093295 -0.18306054 1.839
0.86410785 -0.18306054 1.839
0.86728275 -0.18306054 1.839
0.87045759 -0.18306054 1.839
0.87363249 -0.18306054 1.839
0.87680739 -0.18306054 1.839
0.87998223 -0.18306054 1.839
0.88315713 -0.18306054 1.839
0.89259756 -0.18435462 1.852
0.89579487 -0.18435462 1.852
0.89268178 -0.18306054 1.839
0.89585668 -0.18306054 1.839
-0.47096428 -0.091752455 0.93800002
-0.46934491 -0.091752455 0.93800002
-0.46922144 -0.092045896 0.94099998
-0.46759689 -0.092045896 0.94099998
-0.46795309 -0.09243717 0.94499999
-0.46632162 -0.09243717 0.94499999
-0.46469015 -0.09243717 0.94499999
-0.46305868 -0.09243717 0.94499999
-0.46142721 -0.09243717 0.94499999
-0.46125543 -0.092730619 0.94800001
-0.45961878 -0.092730619 0.94800001
-0.45798215 -0.092730619 0.94800001
-0.4563455 -0.092730619 0.94800001
-0.45470884 -0.092730619 0.94800001
-0.45498392 -0.093121894 0.95200002
-0.45334035 -0.093121894 0.95200002
-0.45169681 -0.093121894 0.95200002
-0.45005324 -0.093121894 0.95200002
-0.44840971 -0.093121894 0.95200002
-0.4486433 -0.093513153 0.95599997
-0.44699284 -0.093513153 0.95599997
-0.44534239 -0.093513153 0.95599997
-0.44369194 -0.093513153 0.95599997
-0.44204149 -0.093513153 0.95599997
-0.44039103 -0.093513153 0.95599997
-0.44011739 -0.09380661 0.95899999
-0.43846175 -0.09380661 0.95899999
-0.43680611 -0.09380661 0.95899999
-0.4369655 -0.094197877 0.963
-0.43530294 -0.094197877 0.963
-0.43364042 -0.094197877 0.963
-0.43197787 -0.094197877 0.963
-0.43031535 -0.094197877 0.963
-0.42865279 -0.094197877 0.963
-0.42699024 -0.094197877 0.963
-0.4270944 -0.094589144 0.96700001
-0.42542496 -0.094589144 0.96700001
-0.4237555 -0.094589144 0.96700001
-0.42208606 -0.094589144 0.96700001
-0.42041662 -0.094589144 0.96700001
-0.4200463 -0.0948826 0.97000003
-0.41837165 -0.0948826 0.97000003
-0.41669703 -0.0948826 0.97000003
-0.4150224 -0.0948826 0.97000003
-0.41334778 -0.0948826 0.97000003
-0.41337076 -0.09527386 0.97399998
-0.41168922 -0.09527386 0.97399998
-0.41000769 -0.09527386 0.97399998
-0.40832618 -0.09527386 0.97399998
-0.40664464 -0.09527386 0.97399998
-0.40496311 -0.09527386 0.97399998
-0.40328157 -0.09527386 0.97399998
-0.40160003 -0.09527386 0.97399998
-0.3999185 -0.09527386 0.97399998
-0.39823699 -0.09527386 0.97399998
-0.398184 -0.095665134 0.97799999
-0.39649558 -0.095665134 0.97799999
-0.39480713 -0.095665134 0.97799999
-0.39311871 -0.095665134 0.97799999
-0.39143026 -0.095665134 0.97799999
-0.38974184 -0.095665134 0.97799999
-0.38805339 -0.095665134 0.97799999
-0.38636497 -0.095665134 0.97799999
-0.38467652 -0.095665134 0.97799999
-0.3829881 -0.095665134 0.97799999
-0.38129964 -0.095665134 0.97799999
-0.37961122 -0.095665134 0.97799999
-0.37792277 -0.095665134 0.97799999
-0.37623435 -0.095665134 0.97799999
-0.3745459 -0.095665134 0.97799999
-0.37285745 -0.095665134 0.97799999
-0.37116903 -0.095665134 0.97799999
-0.37099177 -0.096056402 0.98199999
-0.36929643 -0.096056402 0.98199999
-0.36760107 -0.096056402 0.98199999
-0.36739618 -0.096447669 0.986
-0.36569393 -0.096447669 0.986
-0.36546832 -0.096838944 0.99000001
-0.36375919 -0.096838944 0.99000001
-0.36205003 -0.096838944 0.99000001
-0.36034086 -0.096838944 0.99000001
-0.35863173 -0.096838944 0.99000001
-0.35692257 -0.096838944 0.99000001
-0.3552134 -0.096838944 0.99000001
-0.35350427 -0.096838944 0.99000001
-0.35179511 -0.096838944 0.99000001
-0.35008594 -0.096838944 0.99000001
-0.34837681 -0.096838944 0.99000001
-0.34666765 -0.096838944 0.99000001
-0.34495848 -0.096838944 0.99000001
-0.34324935 -0.096838944 0.99000001
-0.34154019 -0.096838944 0.99000001
-0.33983102 -0.096838944 0.99000001
-0.33812186 -0.096838944 0.99000001
-0.33641273 -0.096838944 0.99000001
-0.34375784 -0.099969082 1.022
-0.34199345 -0.099969082 1.022
-0.34022906 -0.099969082 1.022
-0.33846465 -0.099969082 1.022
-0.33670026 -0.099969082 1.022
-0.33493584 -0.099969082 1.022
-0.33317146 -0.099969082 1.022
-0.019968949 -0.19406915 1.984
-0.016543735 -0.19406915 1.984
-0.013118522 -0.19406915 1.984
-0.0097714812 -0.19563422 2
-0.0063186451 -0.19563422 2
-0.002865809 -0.19563422 2
0.000587027 -0.19563422 2
0.0040398631 -0.19563422 2
0.0074926987 -0.19563422 2
0.010945534 -0.19563422 2
0.014398371 -0.19563422 2
0.017851207 -0.19563422 2
0.021133609 -0.19406915 1.984
0.024756879 -0.19563422 2
0.027984036 -0.19406915 1.984
0.031409249 -0.19406915 1.984
0.034834463 -0.19406915 1.984
0.038568221 -0.19563422 2
0.041684888 -0.19406915 1.984
0.045110103 -0.19406915 1.984
0.048535317 -0.19406915 1.984
0.051960528 -0.19406915 1.984
0.055385742 -0.19406915 1.984
0.058810957 -0.19406915 1.984
0.062236167 -0.19406915 1.984
0.065661378 -0.19406915 1.984
0.069086596 -0.19406915 1.984
0.072511807 -0.19406915 1.984
0.075937018 -0.19406915 1.984
0.079362236 -0.19406915 1.984
0.082787447 -0.19406915 1.984
0.086212657 -0.19406915 1.984
0.089637876 -0.19406915 1.984
0.093813598 -0.19563422 2
0.096488297 -0.19406915 1.984
0.10071927 -0.19563422 2
0.1041721 -0.19563422 2
0.10762494 -0.19563422 2
0.11107778 -0.19563422 2
0.11361437 -0.19406915 1.984
0.11703958 -0.19406915 1.984
0.12143628 -0.19563422 2
0.12389001 -0.19406915 1.984
0.12731522 -0.19406915 1.984
0.13074043 -0.19406915 1.984
0.13416564 -0.19406915 1.984
0.13759086 -0.19406915 1.984
0.14101607 -0.19406915 1.984
0.14444129 -0.19406915 1.984
0.1478665 -0.19406915 1.984
0.15129171 -0.19406915 1.984
0.15471692 -0.19406915 1.984
0.15814213 -0.19406915 1.984
0.16156735 -0.19406915 1.984
0.16632316 -0.19563422 2
0.16977599 -0.19563422 2
0.17184299 -0.19406915 1.984
0.17668165 -0.19563422 2
0.18013449 -0.19563422 2
0.18358733 -0.19563422 2
0.18704017 -0.19563422 2
0.190493 -0.19563422 2
0.19394584 -0.19563422 2
0.19739868 -0.19563422 2
0.20085151 -0.19563422 2
0.20430435 -0.19563422 2
0.20609513 -0.19406915 1.984
0.20952034 -0.19406915 1.984
0.21466285 -0.19563422 2
0.21637076 -0.19406915 1.984
0.21979597 -0.19406915 1.984
0.22322118 -0.19406915 1.984
0.22664641 -0.19406915 1.984
0.23007162 -0.19406915 1.984
0.23349683 -0.19406915 1.984
0.23692204 -0.19406915 1.984
0.24034725 -0.19406915 1.984
0.24377246 -0.19406915 1.984
0.24719769 -0.19406915 1.984
0.2506229 -0.19406915 1.984
0.25404811 -0.19406915 1.984
0.25747332 -0.19406915 1.984
0.26089853 -0.19406915 1.984
0.26432374 -0.19406915 1.984
0.26774895 -0.19406915 1.984
0.27117416 -0.19406915 1.984
0.27681389 -0.19563422 2
0.28026673 -0.19563422 2
0.28371957 -0.19563422 2
0.28487504 -0.19406915 1.984
0.28830025 -0.19406915 1.984
0.29172546 -0.19406915 1.984
0.29515067 -0.19406915 1.984
0.29857588 -0.19406915 1.984
0.30200109 -0.19406915 1.984
0.3054263 -0.19406915 1.984
0.30885151 -0.19406915 1.984
0.31227672 -0.19406915 1.984
0.31570193 -0.19406915 1.984
0.31912717 -0.19406915 1.984
0.32255238 -0.19406915 1.984
0.32597759 -0.19406915 1.984
0.3294028 -0.19406915 1.984
0.33282802 -0.19406915 1.984
0.33625323 -0.19406915 1.984
0.33711031 -0.19260189 1.969
0.34050962 -0.19260189 1.969
0.34390894 -0.19260189 1.969
0.34995407 -0.19406915 1.984
0.35337928 -0.19406915 1.984
0.35680449 -0.19406915 1.984
0.3602297 -0.19406915 1.984
0.36365494 -0.19406915 1.984
0.36708015 -0.19406915 1.984
0.37050536 -0.19406915 1.984
0.37393057 -0.19406915 1.984
0.37735578 -0.19406915 1.984
0.38078099 -0.19406915 1.984
0.38420621 -0.19406915 1.984
0.38763142 -0.19406915 1.984
0.39421031 -0.19563422 2
0.39448184 -0.19406915 1.984
0.39790705 -0.19406915 1.984
0.40133226 -0.19406915 1.984
0.4047575 -0.19406915 1.984
0.40818271 -0.19406915 1.984
0.41160792 -0.19406915 1.984
0.41503313 -0.19406915 1.984
0.41845834 -0.19406915 1.984
0.42188355 -0.19406915 1.984
0.42873868 -0.19563422 2
0.42873397 -0.19406915 1.984
0.43564436 -0.19563422 2
0.4390972 -0.19563422 2
0.55244058 -0.20042726 2.049
0.62122601 -0.20209014 2.066
0.62479281 -0.20209014 2.066
0.64964956 -0.20893735 2.1359999
0.65333724 -0.20893735 2.1359999
0.62503493 -0.19876437 2.0320001
0.62854302 -0.19876437 2.0320001
0.6270743 -0.1971993 2.016
0.63055474 -0.1971993 2.016
0.62900317 -0.19563422 2
0.616467 -0.17988567 1.839
0.6196419 -0.17988567 1.839
0.62599164 -0.17988567 1.839
0.62752753 -0.17851622 1.825
0.63067824 -0.17851622 1.825
0.63869119 -0.17988567 1.839
0.69187862 -0.18389617 1.88
0.69512427 -0.18389617 1.88
0.69316936 -0.18252674 1.8660001
0.70161563 -0.18389617 1.88
0.70486128 -0.18389617 1.88
0.70810694 -0.18389617 1.88
0.70075798 -0.18115729 1.852
0.7092768 -0.18252674 1.8660001
0.71784395 -0.18389617 1.88
0.71571982 -0.18252674 1.8660001
0.71354729 -0.18115729 1.852
0.71171349 -0.17988567 1.839
0.70944607 -0.17851622 1.825
0.71259677 -0.17851622 1.825
0.71574748 -0.17851622 1.825
0.71889818 -0.17851622 1.825
0.72204894 -0.17851622 1.825
0.72519964 -0.17851622 1.825
0.72835034 -0.17851622 1.825
0.73150104 -0.17851622 1.825
0.73465174 -0.17851622 1.825
0.73780245 -0.17851622 1.825
0.74095321 -0.17851622 1.825
0.74410391 -0.17851622 1.825
0.74725461 -0.17851622 1.825
0.75040531 -0.17851622 1.825
0.75355601 -0.17851622 1.825
0.75670677 -0.17851622 1.825
0.75985748 -0.17851622 1.825
0.76300818 -0.17851622 1.825
0.76615888 -0.17851622 1.825
0.76930958 -0.17851622 1.825
0.778386 -0.17988567 1.839
0.7815609 -0.17988567 1.839
0.7847358 -0.17988567 1.839
0.78791064 -0.17988567 1.839
0.79108554 -0.17988567 1.839
0.79426044 -0.17988567 1.839
0.79136461 -0.17851622 1.825
0.80061018 -0.17988567 1.839
0.80378509 -0.17988567 1.839
0.80081671 -0.17851622 1.825
0.80396742 -0.17851622 1.825
0.80711818 -0.17851622 1.825
0.81026888 -0.17851622 1.825
0.81341958 -0.17851622 1.825
0.81657028 -0.17851622 1.825
0.81972098 -0.17851622 1.825
0.82287174 -0.17851622 1.825
0.82602245 -0.17851622 1.825
0.83553392 -0.17988567 1.839
0.83870876 -0.17988567 1.839
0.84188366 -0.17988567 1.839
0.84505856 -0.17988567 1.839
0.8482334 -0.17988567 1.839
0.8514083 -0.17988567 1.839
0.8545832 -0.17988567 1.839
0.8577581 -0.17988567 1.839
0.86093295 -0.17988567 1.839
0.86410785 -0.17988567 1.839
0.86728275 -0.17988567 1.839
0.87045759 -0.17988567 1.839
0.87363249 -0.17988567 1.839
0.87680739 -0.17988567 1.839
0.87998223 -0.17988567 1.839
0.88315713 -0.17988567 1.839
0.89259756 -0.18115729 1.852
0.89579487 -0.18115729 1.852
0.89268178 -0.17988567 1.839
0.89585668 -0.17988567 1.839
0.89903158 -0.17988567 1.839
-0.47096428 -0.090133071 0.93800002
-0.470846 -0.090421341 0.94099998
-0.46922144 -0.090421341 0.94099998
-0.46759689 -0.090421341 0.94099998
-0.46795309 -0.090805702 0.94499999
-0.46632162 -0.090805702 0.94499999
-0.46469015 -0.090805702 0.94499999
-0.46305868 -0.090805702 0.94499999
-0.46142721 -0.090805702 0.94499999
-0.46125543 -0.09109398 0.94800001
-0.45961878 -0.09109398 0.94800001
-0.45798215 -0.09109398 0.94800001
-0.4563455 -0.09109398 0.94800001
-0.45470884 -0.09109398 0.94800001
-0.45498392 -0.09147834 0.95200002
-0.45334035 -0.09147834 0.95200002
-0.45169681 -0.09147834 0.95200002
-0.45005324 -0.09147834 0.95200002
-0.45029375 -0.091862701 0.95599997
-0.4486433 -0.091862701 0.95599997
-0.44699284 -0.091862701 0.95599997
-0.44534239 -0.091862701 0.95599997
-0.44369194 -0.091862701 0.95599997
-0.44204149 -0.091862701 0.95599997
-0.44039103 -0.091862701 0.95599997
-0.44011739 -0.092150971 0.95899999
-0.43846175 -0.092150971 0.95899999
-0.43680611 -0.092150971 0.95899999
-0.4369655 -0.092535339 0.963
-0.43530294 -0.092535339 0.963
-0.43364042 -0.092535339 0.963
-0.43197787 -0.092535339 0.963
-0.43031535 -0.092535339 0.963
-0.42865279 -0.092535339 0.963
-0.42876384 -0.0929197 0.96700001
-0.4270944 -0.0929197 0.96700001
-0.42542496 -0.0929197 0.96700001
-0.4237555 -0.0929197 0.96700001
-0.42208606 -0.0929197 0.96700001
-0.42172092 -0.093207978 0.97000003
-0.4200463 -0.093207978 0.97000003
-0.41837165 -0.093207978 0.97000003
-0.41669703 -0.093207978 0.97000003
-0.4150224 -0.093207978 0.97000003
-0.41334778 -0.093207978 0.97000003
-0.41337076 -0.093592331 0.97399998
-0.41168922 -0.093592331 0.97399998
-0.41000769 -0.093592331 0.97399998
-0.40832618 -0.093592331 0.97399998
-0.40664464 -0.093592331 0.97399998
-0.40496311 -0.093592331 0.97399998
-0.40328157 -0.093592331 0.97399998
-0.40160003 -0.093592331 0.97399998
-0.3999185 -0.093592331 0.97399998
-0.39823699 -0.093592331 0.97399998
-0.398184 -0.093976699 0.97799999
-0.39649558 -0.093976699 0.97799999
-0.39480713 -0.093976699 0.97799999
-0.39311871 -0.093976699 0.97799999
-0.39143026 -0.093976699 0.97799999
-0.38974184 -0.093976699 0.97799999
-0.38805339 -0.093976699 0.97799999
-0.38794518 -0.094361059 0.98199999
-0.38624984 -0.094361059 0.98199999
-0.3829881 -0.093976699 0.97799999
-0.38129964 -0.093976699 0.97799999
-0.37961122 -0.093976699 0.97799999
-0.37792277 -0.093976699 0.97799999
-0.37623435 -0.093976699 0.97799999
-0.3745459 -0.093976699 0.97799999
-0.37438244 -0.094361059 0.98199999
-0.3726871 -0.094361059 0.98199999
-0.37099177 -0.094361059 0.98199999
-0.36929643 -0.094361059 0.98199999
-0.36760107 -0.094361059 0.98199999
-0.36739618 -0.09474542 0.986
-0.36569393 -0.09474542 0.986
-0.36546832 -0.095129788 0.99000001
-0.36375919 -0.095129788 0.99000001
-0.36205003 -0.095129788 0.99000001
-0.36034086 -0.095129788 0.99000001
-0.35863173 -0.095129788 0.99000001
-0.35692257 -0.095129788 0.99000001
-0.3552134 -0.095129788 0.99000001
-0.35350427 -0.095129788 0.99000001
-0.35179511 -0.095129788 0.99000001
-0.35008594 -0.095129788 0.99000001
-0.34837681 -0.095129788 0.99000001
-0.34666765 -0.095129788 0.99000001
-0.34495848 -0.095129788 0.99000001
-0.34324935 -0.095129788 0.99000001
-0.34154019 -0.095129788 0.99000001
-0.33983102 -0.095129788 0.99000001
-0.33812186 -0.095129788 0.99000001
-0.33641273 -0.095129788 0.99000001
-0.34375784 -0.09820468 1.022
-0.34199345 -0.09820468 1.022
-0.34022906 -0.09820468 1.022
-0.33846465 -0.09820468 1.022
-0.33670026 -0.09820468 1.022
-0.33493584 -0.09820468 1.022
-0.33317146 -0.09820468 1.022
-0.019968949 -0.19064394 1.984
-0.016543735 -0.19064394 1.984
-0.013118522 -0.19064394 1.984
-0.0097714812 -0.19218138 2
-0.0063186451 -0.19218138 2
-0.002865809 -0.19218138 2
0.000587027 -0.19218138 2
0.0040398631 -0.19218138 2
0.0074926987 -0.19218138 2
0.010945534 -0.19218138 2
0.014398371 -0.19218138 2
0.017851207 -0.19218138 2
0.021304043 -0.19218138 2
0.024756879 -0.19218138 2
0.028209714 -0.19218138 2
0.03166255 -0.19218138 2
0.035115387 -0.19218138 2
0.038568221 -0.19218138 2
0.041684888 -0.19064394 1.984
0.045110103 -0.19064394 1.984
0.048535317 -0.19064394 1.984
0.051960528 -0.19064394 1.984
0.055385742 -0.19064394 1.984
0.058810957 -0.19064394 1.984
0.062236167 -0.19064394 1.984
0.065661378 -0.19064394 1.984
0.069086596 -0.19064394 1.984
0.072511807 -0.19064394 1.984
0.075937018 -0.19064394 1.984
0.079362236 -0.19064394 1.984
0.082787447 -0.19064394 1.984
0.086212657 -0.19064394 1.984
0.089637876 -0.19064394 1.984
0.093063086 -0.19064394 1.984
0.096488297 -0.19064394 1.984
0.10071927 -0.19218138 2
0.1041721 -0.19218138 2
0.10762494 -0.19218138 2
0.11107778 -0.19218138 2
0.11453062 -0.19218138 2
0.11798345 -0.19218138 2
0.12046479 -0.19064394 1.984
0.12389001 -0.19064394 1.984
0.12731522 -0.19064394 1.984
0.13074043 -0.19064394 1.984
0.13524763 -0.19218138 2
0.13870047 -0.19218138 2
0.14215329 -0.19218138 2
0.14444129 -0.19064394 1.984
0.1478665 -0.19064394 1.984
0.15129171 -0.19064394 1.984
0.15471692 -0.19064394 1.984
0.15941748 -0.19218138 2
0.16287032 -0.19218138 2
0.16632316 -0.19218138 2
0.16977599 -0.19218138 2
0.17322883 -0.19218138 2
0.17668165 -0.19218138 2
0.18013449 -0.19218138 2
0.18358733 -0.19218138 2
