# .PCD v0.7 - Point Cloud Data file format
VERSION 0.7
FIELDS x y z
SIZE 4 4 4
TYPE F F F
COUNT 1 1 1
WIDTH 1614
HEIGHT 1
VIEWPOINT 0 0 0 1 0 0 0
POINTS 1614
DATA ascii
-0.24071744 -0.16873452 1.725
-0.23608553 -0.16756071 1.7130001
-0.22129877 -0.16756071 1.7130001
-0.20161523 -0.17352755 1.774
0.01116593 -0.12236921 1.251
0.013325679 -0.12236921 1.251
0.015485428 -0.12236921 1.251
0.017645177 -0.12236921 1.251
0.019804927 -0.12236921 1.251
0.021964675 -0.12236921 1.251
0.024124423 -0.12236921 1.251
0.026284173 -0.12236921 1.251
0.028443921 -0.12236921 1.251
0.030603671 -0.12236921 1.251
0.032763422 -0.12236921 1.251
0.03492317 -0.12236921 1.251
0.037082918 -0.12236921 1.251
0.039242666 -0.12236921 1.251
0.041402414 -0.12236921 1.251
0.043562166 -0.12236921 1.251
0.045977749 -0.12305392 1.258
0.047881663 -0.12236921 1.251
0.050041411 -0.12236921 1.251
0.052201159 -0.12236921 1.251
0.054360908 -0.12236921 1.251
0.056520659 -0.12236921 1.251
0.058680408 -0.12236921 1.251
0.060840156 -0.12236921 1.251
0.062999904 -0.12236921 1.251
0.065159656 -0.12236921 1.251
0.067319401 -0.12236921 1.251
0.069479153 -0.12236921 1.251
0.071638905 -0.12236921 1.251
0.073798649 -0.12236921 1.251
0.075958401 -0.12236921 1.251
0.078118145 -0.12236921 1.251
0.080277897 -0.12236921 1.251
0.082437649 -0.12236921 1.251
0.08419165 -0.1217823 1.245
0.086757146 -0.12236921 1.251
0.08891689 -0.12236921 1.251
0.090639822 -0.1217823 1.245
0.093236394 -0.12236921 1.251
0.095396139 -0.12236921 1.251
0.097555891 -0.12236921 1.251
0.099715635 -0.12236921 1.251
0.10187539 -0.12236921 1.251
0.10403513 -0.12236921 1.251
0.10619488 -0.12236921 1.251
0.10896093 -0.12305392 1.258
0.11051438 -0.12236921 1.251
0.11267413 -0.12236921 1.251
0.11483388 -0.12236921 1.251
0.11699363 -0.12236921 1.251
0.11915338 -0.12236921 1.251
0.12073129 -0.1217823 1.245
0.12347288 -0.12236921 1.251
0.12503007 -0.1217823 1.245
0.12779237 -0.12236921 1.251
0.12995212 -0.12236921 1.251
0.13211188 -0.12236921 1.251
0.13427162 -0.12236921 1.251
0.13643137 -0.12236921 1.251
0.13859113 -0.12236921 1.251
0.14075087 -0.12236921 1.251
0.14291061 -0.12236921 1.251
0.14507036 -0.12236921 1.251
0.14723012 -0.12236921 1.251
0.14938986 -0.12236921 1.251
0.15082274 -0.1217823 1.245
0.15297215 -0.1217823 1.245
0.15512154 -0.1217823 1.245
0.15802886 -0.12236921 1.251
0.16018862 -0.12236921 1.251
0.1615697 -0.1217823 1.245
0.16371909 -0.1217823 1.245
0.16586848 -0.1217823 1.245
0.16882761 -0.12236921 1.251
0.17098735 -0.12236921 1.251
0.1731471 -0.12236921 1.251
0.17530686 -0.12236921 1.251
0.1774666 -0.12236921 1.251
0.17962635 -0.12236921 1.251
0.18178611 -0.12236921 1.251
0.18394585 -0.12236921 1.251
0.18610559 -0.12236921 1.251
0.18826534 -0.12236921 1.251
0.1904251 -0.12236921 1.251
0.19258484 -0.12236921 1.251
0.19474459 -0.12236921 1.251
0.19690435 -0.12236921 1.251
0.19906409 -0.12236921 1.251
0.20122384 -0.12236921 1.251
0.20338359 -0.12236921 1.251
0.20554334 -0.12236921 1.251
0.20770308 -0.12236921 1.251
0.20986283 -0.12236921 1.251
0.21202259 -0.12236921 1.251
0.21418233 -0.12236921 1.251
0.21634208 -0.12236921 1.251
0.21850184 -0.12236921 1.251
0.22066158 -0.12236921 1.251
0.22175263 -0.1217823 1.245
0.22498107 -0.12236921 1.251
0.22714083 -0.12236921 1.251
0.22930057 -0.12236921 1.251
0.2303502 -0.1217823 1.245
0.23249958 -0.1217823 1.245
0.23464897 -0.1217823 1.245
0.23679836 -0.1217823 1.245
0.23894775 -0.1217823 1.245
0.24109715 -0.1217823 1.245
0.24324654 -0.1217823 1.245
0.24539593 -0.1217823 1.245
0.24754532 -0.1217823 1.245
0.24969471 -0.1217823 1.245
0.25184411 -0.1217823 1.245
0.25399348 -0.1217823 1.245
0.25614288 -0.1217823 1.245
0.25829226 -0.1217823 1.245
0.26044166 -0.1217823 1.245
0.26259106 -0.1217823 1.245
0.26474044 -0.1217823 1.245
0.26688984 -0.1217823 1.245
0.26903921 -0.1217823 1.245
0.27118862 -0.1217823 1.245
0.27333799 -0.1217823 1.245
0.27548739 -0.1217823 1.245
0.2776368 -0.1217823 1.245
0.27978617 -0.1217823 1.245
0.28193557 -0.1217823 1.245
0.28408495 -0.1217823 1.245
0.28623435 -0.1217823 1.245
0.28838372 -0.1217823 1.245
0.29053313 -0.1217823 1.245
0.29268253 -0.1217823 1.245
0.29625279 -0.12236921 1.251
0.2969813 -0.1217823 1.245
0.29913068 -0.1217823 1.245
0.30128008 -0.1217823 1.245
0.30342945 -0.1217823 1.245
0.30557886 -0.1217823 1.245
0.30772826 -0.1217823 1.245
0.30987763 -0.1217823 1.245
0.31202704 -0.1217823 1.245
0.31417641 -0.1217823 1.245
0.31632581 -0.1217823 1.245
0.31847519 -0.1217823 1.245
0.32062459 -0.1217823 1.245
0.32277399 -0.1217823 1.245
0.32492337 -0.1217823 1.245
0.32864901 -0.12236921 1.251
0.33080879 -0.12236921 1.251
0.33296853 -0.12236921 1.251
0.33352092 -0.1217823 1.245
0.33781973 -0.1217823 1.245
0.3399691 -0.1217823 1.245
0.34376726 -0.12236921 1.251
0.34592703 -0.12236921 1.251
0.34808677 -0.12236921 1.251
0.35024652 -0.12236921 1.251
0.35071605 -0.1217823 1.245
0.35286546 -0.1217823 1.245
0.35501483 -0.1217823 1.245
0.35716423 -0.1217823 1.245
0.35931361 -0.1217823 1.245
0.36146301 -0.1217823 1.245
0.36536476 -0.12236921 1.251
0.36576179 -0.1217823 1.245
0.36791119 -0.1217823 1.245
0.37006056 -0.1217823 1.245
0.37400377 -0.12236921 1.251
0.37616351 -0.12236921 1.251
0.37832326 -0.12236921 1.251
0.380483 -0.12236921 1.251
0.38264275 -0.12236921 1.251
0.38480249 -0.12236921 1.251
0.38696223 -0.12236921 1.251
0.3872557 -0.1217823 1.245
0.39128175 -0.12236921 1.251
0.3934415 -0.12236921 1.251
0.39560124 -0.12236921 1.251
0.39585325 -0.1217823 1.245
0.39800265 -0.1217823 1.245
0.40015203 -0.1217823 1.245
0.40424025 -0.12236921 1.251
0.4064 -0.12236921 1.251
0.40855974 -0.12236921 1.251
0.41071948 -0.12236921 1.251
0.41089898 -0.1217823 1.245
0.41304839 -0.1217823 1.245
0.41519776 -0.1217823 1.245
0.41734716 -0.1217823 1.245
0.41949654 -0.1217823 1.245
0.42164594 -0.1217823 1.245
0.42379534 -0.1217823 1.245
0.42594472 -0.1217823 1.245
0.42809412 -0.1217823 1.245
0.43024349 -0.1217823 1.245
0.4323929 -0.1217823 1.245
0.43454227 -0.1217823 1.245
0.43669167 -0.1217823 1.245
0.44095597 -0.12236921 1.251
0.44311571 -0.12236921 1.251
0.44527546 -0.12236921 1.251
0.44993883 -0.12305392 1.258
0.45426702 -0.12364084 1.2640001
0.45861587 -0.12422772 1.27
0.4633483 -0.12491245 1.277
0.46774036 -0.12549935 1.283
0.4725194 -0.12618408 1.29
0.47732267 -0.1268688 1.2970001
0.47956184 -0.1268688 1.2970001
0.48180097 -0.1268688 1.2970001
0.48404014 -0.1268688 1.2970001
0.48627931 -0.1268688 1.2970001
0.48851848 -0.1268688 1.2970001
0.49075764 -0.1268688 1.2970001
0.49299681 -0.1268688 1.2970001
0.49523598 -0.1268688 1.2970001
0.49747515 -0.1268688 1.2970001
0.49971431 -0.1268688 1.2970001
0.50195348 -0.1268688 1.2970001
0.50419265 -0.1268688 1.2970001
0.50643182 -0.1268688 1.2970001
0.50867099 -0.1268688 1.2970001
0.51091009 -0.1268688 1.2970001
0.51314926 -0.1268688 1.2970001
0.51538843 -0.1268688 1.2970001
0.5176276 -0.1268688 1.2970001
0.51986676 -0.1268688 1.2970001
0.52452123 -0.1274557 1.303
0.52677071 -0.1274557 1.303
0.52658427 -0.1268688 1.2970001
0.52882344 -0.1268688 1.2970001
0.53351927 -0.1274557 1.303
0.53576881 -0.1274557 1.303
0.53554094 -0.1268688 1.2970001
0.53778011 -0.1268688 1.2970001
0.54251736 -0.1274557 1.303
0.5447669 -0.1274557 1.303
0.54449761 -0.1268688 1.2970001
0.54673678 -0.1268688 1.2970001
0.54897588 -0.1268688 1.2970001
0.55121505 -0.1268688 1.2970001
0.55345422 -0.1268688 1.2970001
0.55569339 -0.1268688 1.2970001
0.55793256 -0.1268688 1.2970001
0.56017172 -0.1268688 1.2970001
0.56241089 -0.1268688 1.2970001
0.56465006 -0.1268688 1.2970001
0.56688923 -0.1268688 1.2970001
0.56912839 -0.1268688 1.2970001
0.57401073 -0.1274557 1.303
0.57626021 -0.1274557 1.303
0.57850975 -0.1274557 1.303
0.58075929 -0.1274557 1.303
0.58300877 -0.1274557 1.303
0.58525831 -0.1274557 1.303
0.58480257 -0.1268688 1.2970001
0.58704168 -0.1268688 1.2970001
0.59200686 -0.1274557 1.303
0.5942564 -0.1274557 1.303
0.59375918 -0.1268688 1.2970001
0.59599835 -0.1268688 1.2970001
0.59823751 -0.1268688 1.2970001
0.60047668 -0.1268688 1.2970001
0.60271585 -0.1268688 1.2970001
0.60495502 -0.1268688 1.2970001
0.60719419 -0.1268688 1.2970001
0.60943335 -0.1268688 1.2970001
0.61167252 -0.1268688 1.2970001
0.61059833 -0.12618408 1.29
0.61282539 -0.12618408 1.29
0.61505246 -0.12618408 1.29
0.62062919 -0.1268688 1.2970001
0.68393844 -0.1383134 1.414
0.68637961 -0.1383134 1.414
0.68882078 -0.1383134 1.414
0.69126189 -0.1383134 1.414
0.69370306 -0.1383134 1.414
0.69614422 -0.1383134 1.414
0.69858539 -0.1383134 1.414
0.70102656 -0.1383134 1.414
0.70346767 -0.1383134 1.414
0.70590883 -0.1383134 1.414
0.70835 -0.1383134 1.414
0.71079117 -0.1383134 1.414
0.71323228 -0.1383134 1.414
0.71972257 -0.13909593 1.4220001
0.72217751 -0.13909593 1.4220001
0.7246325 -0.13909593 1.4220001
0.73117787 -0.13987847 1.4299999
0.73775101 -0.140661 1.438
0.74435174 -0.14144354 1.446
0.74271619 -0.140661 1.438
0.74934453 -0.14144354 1.446
0.75184095 -0.14144354 1.446
0.75433731 -0.14144354 1.446
0.75264651 -0.140661 1.438
0.7551291 -0.140661 1.438
0.75339687 -0.13987847 1.4299999
0.75586569 -0.13987847 1.4299999
0.75833446 -0.13987847 1.4299999
0.76080322 -0.13987847 1.4299999
0.76327199 -0.13987847 1.4299999
0.76574075 -0.13987847 1.4299999
0.76391196 -0.13909593 1.4220001
0.7663669 -0.13909593 1.4220001
0.76449656 -0.1383134 1.414
0.76693773 -0.1383134 1.414
0.76067299 -0.13674831 1.398
0.7587198 -0.13596578 1.39
0.75290602 -0.13449852 1.375
0.74704045 -0.13303128 1.36
0.7455312 -0.13234656 1.353
0.74786705 -0.13234656 1.353
0.74576712 -0.13156402 1.345
0.74419576 -0.1308793 1.3380001
0.74650574 -0.1308793 1.3380001
0.74489802 -0.13019457 1.331
0.7471959 -0.13019457 1.331
0.74949378 -0.13019457 1.331
0.75179166 -0.13019457 1.331
-0.38288644 -0.20524971 2.1359999
-0.37919882 -0.20524971 2.1359999
-0.37551117 -0.20524971 2.1359999
-0.37182355 -0.20524971 2.1359999
-0.36813593 -0.20524971 2.1359999
-0.36444828 -0.20524971 2.1359999
-0.36076066 -0.20524971 2.1359999
-0.35707304 -0.20524971 2.1359999
-0.27848125 -0.16345027 1.701
-0.2774885 -0.16460337 1.7130001
-0.2764543 -0.16575645 1.725
-0.27537867 -0.16690953 1.737
-0.27237988 -0.16690953 1.737
-0.26938108 -0.16690953 1.737
-0.26638231 -0.16690953 1.737
-0.26156393 -0.16575645 1.725
-0.25858587 -0.16575645 1.725
-0.25560778 -0.16575645 1.725
-0.25262973 -0.16575645 1.725
-0.25138837 -0.16690953 1.737
-0.24667358 -0.16575645 1.725
-0.24369551 -0.16575645 1.725
-0.24071744 -0.16575645 1.725
-0.22739805 -0.16690953 1.737
-0.22439927 -0.16690953 1.737
-0.22140048 -0.16690953 1.737
-0.20161523 -0.17046489 1.774
-0.17941745 -0.16690953 1.737
-0.17763744 -0.16806261 1.749
0.01116593 -0.12020946 1.251
0.013325679 -0.12020946 1.251
0.015485428 -0.12020946 1.251
0.017645177 -0.12020946 1.251
0.019804927 -0.12020946 1.251
0.021964675 -0.12020946 1.251
0.024124423 -0.12020946 1.251
0.026284173 -0.12020946 1.251
0.028443921 -0.12020946 1.251
0.030603671 -0.12020946 1.251
0.032763422 -0.12020946 1.251
0.03492317 -0.12020946 1.251
0.037082918 -0.12020946 1.251
0.039242666 -0.12020946 1.251
0.041402414 -0.12020946 1.251
0.043562166 -0.12020946 1.251
0.045977749 -0.12088209 1.258
0.047881663 -0.12020946 1.251
0.050041411 -0.12020946 1.251
0.052201159 -0.12020946 1.251
0.054360908 -0.12020946 1.251
0.056520659 -0.12020946 1.251
0.058680408 -0.12020946 1.251
0.060840156 -0.12020946 1.251
0.062999904 -0.12020946 1.251
0.065159656 -0.12020946 1.251
0.067319401 -0.12020946 1.251
0.069479153 -0.12020946 1.251
0.071638905 -0.12020946 1.251
0.073798649 -0.12020946 1.251
0.075958401 -0.12020946 1.251
0.078118145 -0.12020946 1.251
0.080277897 -0.12020946 1.251
0.082437649 -0.12020946 1.251
0.08419165 -0.11963291 1.245
0.086341038 -0.11963291 1.245
0.088490427 -0.11963291 1.245
0.090639822 -0.11963291 1.245
0.093236394 -0.12020946 1.251
0.094938599 -0.11963291 1.245
0.097555891 -0.12020946 1.251
0.099715635 -0.12020946 1.251
0.10187539 -0.12020946 1.251
0.10403513 -0.12020946 1.251
0.10619488 -0.12020946 1.251
0.10896093 -0.12088209 1.258
0.11113276 -0.12088209 1.258
0.11267413 -0.12020946 1.251
0.11483388 -0.12020946 1.251
0.11699363 -0.12020946 1.251
0.11915338 -0.12020946 1.251
0.12131312 -0.12020946 1.251
0.12347288 -0.12020946 1.251
0.12563263 -0.12020946 1.251
0.12779237 -0.12020946 1.251
0.12995212 -0.12020946 1.251
0.13211188 -0.12020946 1.251
0.13427162 -0.12020946 1.251
0.13643137 -0.12020946 1.251
0.13859113 -0.12020946 1.251
0.14075087 -0.12020946 1.251
0.14291061 -0.12020946 1.251
0.14507036 -0.12020946 1.251
0.14723012 -0.12020946 1.251
0.14938986 -0.12020946 1.251
0.15154961 -0.12020946 1.251
0.15297215 -0.11963291 1.245
0.15512154 -0.11963291 1.245
0.15802886 -0.12020946 1.251
0.16018862 -0.12020946 1.251
0.1615697 -0.11963291 1.245
0.16371909 -0.11963291 1.245
0.16586848 -0.11963291 1.245
0.16882761 -0.12020946 1.251
0.17098735 -0.12020946 1.251
0.1731471 -0.12020946 1.251
0.17530686 -0.12020946 1.251
0.1774666 -0.12020946 1.251
0.17962635 -0.12020946 1.251
0.18178611 -0.12020946 1.251
0.18394585 -0.12020946 1.251
0.18610559 -0.12020946 1.251
0.18826534 -0.12020946 1.251
0.1904251 -0.12020946 1.251
0.19258484 -0.12020946 1.251
0.19474459 -0.12020946 1.251
0.19690435 -0.12020946 1.251
0.19906409 -0.12020946 1.251
0.20122384 -0.12020946 1.251
0.20338359 -0.12020946 1.251
0.20554334 -0.12020946 1.251
0.20770308 -0.12020946 1.251
0.20986283 -0.12020946 1.251
0.21202259 -0.12020946 1.251
0.21418233 -0.12020946 1.251
0.21634208 -0.12020946 1.251
0.21850184 -0.12020946 1.251
0.22066158 -0.12020946 1.251
0.22175263 -0.11963291 1.245
0.22498107 -0.12020946 1.251
0.22714083 -0.12020946 1.251
0.22930057 -0.12020946 1.251
0.2303502 -0.11963291 1.245
0.23249958 -0.11963291 1.245
0.23464897 -0.11963291 1.245
0.23679836 -0.11963291 1.245
0.23894775 -0.11963291 1.245
0.24109715 -0.11963291 1.245
0.24324654 -0.11963291 1.245
0.24539593 -0.11963291 1.245
0.24754532 -0.11963291 1.245
0.24969471 -0.11963291 1.245
0.25184411 -0.11963291 1.245
0.25399348 -0.11963291 1.245
0.25614288 -0.11963291 1.245
0.25829226 -0.11963291 1.245
0.26044166 -0.11963291 1.245
0.26259106 -0.11963291 1.245
0.26474044 -0.11963291 1.245
0.26688984 -0.11963291 1.245
0.26903921 -0.11963291 1.245
0.26988167 -0.11905637 1.239
0.27333799 -0.11963291 1.245
0.27548739 -0.11963291 1.245
0.2776368 -0.11963291 1.245
0.27978617 -0.11963291 1.245
0.28193557 -0.11963291 1.245
0.28408495 -0.11963291 1.245
0.28623435 -0.11963291 1.245
0.28838372 -0.11963291 1.245
0.29053313 -0.11963291 1.245
0.29268253 -0.11963291 1.245
0.2948319 -0.11963291 1.245
0.2969813 -0.11963291 1.245
0.29913068 -0.11963291 1.245
0.30128008 -0.11963291 1.245
0.30342945 -0.11963291 1.245
0.30557886 -0.11963291 1.245
0.30772826 -0.11963291 1.245
0.30987763 -0.11963291 1.245
0.31202704 -0.11963291 1.245
0.31417641 -0.11963291 1.245
0.31632581 -0.11963291 1.245
0.31847519 -0.11963291 1.245
0.32062459 -0.11963291 1.245
0.32277399 -0.11963291 1.245
0.32648927 -0.12020946 1.251
0.32864901 -0.12020946 1.251
0.33080879 -0.12020946 1.251
0.33296853 -0.12020946 1.251
0.33781973 -0.11963291 1.245
0.3399691 -0.11963291 1.245
0.3421185 -0.11963291 1.245
0.34592703 -0.12020946 1.251
0.34641728 -0.11963291 1.245
0.34856665 -0.11963291 1.245
0.35071605 -0.11963291 1.245
0.35286546 -0.11963291 1.245
0.35501483 -0.11963291 1.245
0.35716423 -0.11963291 1.245
0.35931361 -0.11963291 1.245
0.36146301 -0.11963291 1.245
0.36361238 -0.11963291 1.245
0.36576179 -0.11963291 1.245
0.36791119 -0.11963291 1.245
0.37006056 -0.11963291 1.245
0.37400377 -0.12020946 1.251
0.37616351 -0.12020946 1.251
0.37832326 -0.12020946 1.251
0.380483 -0.12020946 1.251
0.38264275 -0.12020946 1.251
0.38480249 -0.12020946 1.251
0.3851063 -0.11963291 1.245
0.3872557 -0.11963291 1.245
0.38940507 -0.11963291 1.245
0.39155447 -0.11963291 1.245
0.39370388 -0.11963291 1.245
0.39585325 -0.11963291 1.245
0.39800265 -0.11963291 1.245
0.40015203 -0.11963291 1.245
0.40230143 -0.11963291 1.245
0.4044508 -0.11963291 1.245
0.40660021 -0.11963291 1.245
0.40874961 -0.11963291 1.245
0.41089898 -0.11963291 1.245
0.41304839 -0.11963291 1.245
0.41519776 -0.11963291 1.245
0.41734716 -0.11963291 1.245
0.41949654 -0.11963291 1.245
0.42164594 -0.11963291 1.245
0.42379534 -0.11963291 1.245
0.42594472 -0.11963291 1.245
0.42809412 -0.11963291 1.245
0.43024349 -0.11963291 1.245
0.4323929 -0.11963291 1.245
0.43454227 -0.11963291 1.245
0.43669167 -0.11963291 1.245
0.44095597 -0.12020946 1.251
0.44311571 -0.12020946 1.251
0.44527546 -0.12020946 1.251
0.44993883 -0.12088209 1.258
0.45211068 -0.12088209 1.258
0.45861587 -0.12203518 1.27
0.46080843 -0.12203518 1.27
0.46555293 -0.12270781 1.277
0.4725194 -0.12395699 1.29
0.47732267 -0.12462963 1.2970001
0.47956184 -0.12462963 1.2970001
0.48180097 -0.12462963 1.2970001
0.48404014 -0.12462963 1.2970001
0.48627931 -0.12462963 1.2970001
0.48851848 -0.12462963 1.2970001
0.49075764 -0.12462963 1.2970001
0.49299681 -0.12462963 1.2970001
0.49523598 -0.12462963 1.2970001
0.49747515 -0.12462963 1.2970001
0.49971431 -0.12462963 1.2970001
0.50195348 -0.12462963 1.2970001
0.50419265 -0.12462963 1.2970001
0.50643182 -0.12462963 1.2970001
0.50867099 -0.12462963 1.2970001
0.51091009 -0.12462963 1.2970001
0.51314926 -0.12462963 1.2970001
0.51538843 -0.12462963 1.2970001
0.5176276 -0.12462963 1.2970001
0.51986676 -0.12462963 1.2970001
0.52452123 -0.12520617 1.303
0.52677071 -0.12520617 1.303
0.52658427 -0.12462963 1.2970001
0.52882344 -0.12462963 1.2970001
0.53351927 -0.12520617 1.303
0.53576881 -0.12520617 1.303
0.53554094 -0.12462963 1.2970001
0.53778011 -0.12462963 1.2970001
0.54251736 -0.12520617 1.303
0.5447669 -0.12520617 1.303
0.54449761 -0.12462963 1.2970001
0.54673678 -0.12462963 1.2970001
0.54897588 -0.12462963 1.2970001
0.55121505 -0.12462963 1.2970001
0.55345422 -0.12462963 1.2970001
0.55569339 -0.12462963 1.2970001
0.55793256 -0.12462963 1.2970001
0.56017172 -0.12462963 1.2970001
0.56241089 -0.12462963 1.2970001
0.56465006 -0.12462963 1.2970001
0.56688923 -0.12462963 1.2970001
0.57176119 -0.12520617 1.303
0.57401073 -0.12520617 1.303
0.57626021 -0.12520617 1.303
0.57850975 -0.12520617 1.303
0.58075929 -0.12520617 1.303
0.58300877 -0.12520617 1.303
0.58525831 -0.12520617 1.303
0.58750784 -0.12520617 1.303
0.58975738 -0.12520617 1.303
0.59200686 -0.12520617 1.303
0.5942564 -0.12520617 1.303
0.59375918 -0.12462963 1.2970001
0.59599835 -0.12462963 1.2970001
0.59823751 -0.12462963 1.2970001
0.60047668 -0.12462963 1.2970001
0.60271585 -0.12462963 1.2970001
0.60495502 -0.12462963 1.2970001
0.60719419 -0.12462963 1.2970001
0.60943335 -0.12462963 1.2970001
0.61167252 -0.12462963 1.2970001
0.61059833 -0.12395699 1.29
0.61282539 -0.12395699 1.29
0.67378587 -0.13433479 1.398
0.68006891 -0.13510351 1.406
0.68249625 -0.13510351 1.406
0.68492359 -0.13510351 1.406
0.69126189 -0.13587224 1.414
0.68977827 -0.13510351 1.406
0.69220561 -0.13510351 1.406
0.69463295 -0.13510351 1.406
0.69706035 -0.13510351 1.406
0.70346767 -0.13587224 1.414
0.70590883 -0.13587224 1.414
0.70835 -0.13587224 1.414
0.71079117 -0.13587224 1.414
0.71323228 -0.13587224 1.414
0.71567345 -0.13587224 1.414
0.72217751 -0.13664097 1.4220001
0.7246325 -0.13664097 1.4220001
0.73117787 -0.13740969 1.4299999
0.73364669 -0.13740969 1.4299999
0.7402336 -0.13817841 1.438
0.74271619 -0.13817841 1.438
0.74519879 -0.13817841 1.438
0.74768138 -0.13817841 1.438
0.75016391 -0.13817841 1.438
0.75264651 -0.13817841 1.438
0.7509281 -0.13740969 1.4299999
0.75339687 -0.13740969 1.4299999
0.75586569 -0.13740969 1.4299999
0.75833446 -0.13740969 1.4299999
0.76080322 -0.13740969 1.4299999
0.76327199 -0.13740969 1.4299999
0.76574075 -0.13740969 1.4299999
0.76391196 -0.13664097 1.4220001
0.7663669 -0.13664097 1.4220001
0.76449656 -0.13587224 1.414
0.76693773 -0.13587224 1.414
0.76067299 -0.13433479 1.398
0.7587198 -0.13356607 1.39
0.74852544 -0.13135597 1.367
0.74704045 -0.13068335 1.36
0.7455312 -0.13001071 1.353
0.74786705 -0.13001071 1.353
0.74576712 -0.12924199 1.345
0.74419576 -0.12856935 1.3380001
0.74650574 -0.12856935 1.3380001
0.74489802 -0.12789671 1.331
0.7471959 -0.12789671 1.331
0.74949378 -0.12789671 1.331
0.75179166 -0.12789671 1.331
-0.38331643 -0.19986354 2.118
-0.37965989 -0.19986354 2.118
-0.37600332 -0.19986354 2.118
-0.37234679 -0.19986354 2.118
-0.37182355 -0.20156208 2.1359999
-0.36813593 -0.20156208 2.1359999
-0.36444828 -0.20156208 2.1359999
-0.36076066 -0.20156208 2.1359999
-0.35707304 -0.20156208 2.1359999
-0.35338542 -0.20156208 2.1359999
-0.27237988 -0.16391075 1.737
-0.26938108 -0.16391075 1.737
-0.26638231 -0.16391075 1.737
-0.26156393 -0.16277838 1.725
-0.25858587 -0.16277838 1.725
-0.25560778 -0.16277838 1.725
-0.25262973 -0.16277838 1.725
-0.25138837 -0.16391075 1.737
-0.24667358 -0.16277838 1.725
-0.24369551 -0.16277838 1.725
-0.24071744 -0.16277838 1.725
-0.23039684 -0.16391075 1.737
-0.22896902 -0.16504312 1.749
-0.22594951 -0.16504312 1.749
-0.22293001 -0.16504312 1.749
-0.20013778 -0.16617548 1.761
-0.17941745 -0.16391075 1.737
-0.17641866 -0.16391075 1.737
-0.17341986 -0.16391075 1.737
-0.14736491 -0.16164601 1.7130001
0.01116593 -0.11804971 1.251
0.013325679 -0.11804971 1.251
0.015485428 -0.11804971 1.251
0.017645177 -0.11804971 1.251
0.019804927 -0.11804971 1.251
0.021964675 -0.11804971 1.251
0.024124423 -0.11804971 1.251
0.026284173 -0.11804971 1.251
0.028443921 -0.11804971 1.251
0.030603671 -0.11804971 1.251
0.032763422 -0.11804971 1.251
0.03492317 -0.11804971 1.251
0.037082918 -0.11804971 1.251
0.039242666 -0.11804971 1.251
0.041402414 -0.11804971 1.251
0.043562166 -0.11804971 1.251
0.045721915 -0.11804971 1.251
0.047881663 -0.11804971 1.251
0.050041411 -0.11804971 1.251
0.052201159 -0.11804971 1.251
0.054360908 -0.11804971 1.251
0.056520659 -0.11804971 1.251
0.058680408 -0.11804971 1.251
0.060548354 -0.11748352 1.245
0.062697746 -0.11748352 1.245
0.064847134 -0.11748352 1.245
0.067319401 -0.11804971 1.251
0.069145918 -0.11748352 1.245
0.071638905 -0.11804971 1.251
0.073798649 -0.11804971 1.251
0.07559409 -0.11748352 1.245
0.078118145 -0.11804971 1.251
0.080277897 -0.11804971 1.251
0.082437649 -0.11804971 1.251
0.08419165 -0.11748352 1.245
0.086341038 -0.11748352 1.245
0.088490427 -0.11748352 1.245
0.090639822 -0.11748352 1.245
0.09278921 -0.11748352 1.245
0.094938599 -0.11748352 1.245
0.097555891 -0.11804971 1.251
0.099237382 -0.11748352 1.245
0.10187539 -0.11804971 1.251
0.10403513 -0.11804971 1.251
0.10619488 -0.11804971 1.251
0.10835464 -0.11804971 1.251
0.11051438 -0.11804971 1.251
0.11267413 -0.11804971 1.251
0.11483388 -0.11804971 1.251
0.11699363 -0.11804971 1.251
0.11915338 -0.11804971 1.251
0.12131312 -0.11804971 1.251
0.12347288 -0.11804971 1.251
0.12503007 -0.11748352 1.245
0.12779237 -0.11804971 1.251
0.12995212 -0.11804971 1.251
0.13211188 -0.11804971 1.251
0.13427162 -0.11804971 1.251
0.13643137 -0.11804971 1.251
0.13859113 -0.11804971 1.251
0.14075087 -0.11804971 1.251
0.14291061 -0.11804971 1.251
0.14507036 -0.11804971 1.251
0.14723012 -0.11804971 1.251
0.14938986 -0.11804971 1.251
0.15154961 -0.11804971 1.251
0.15297215 -0.11748352 1.245
0.15512154 -0.11748352 1.245
0.15727092 -0.11748352 1.245
0.15942031 -0.11748352 1.245
0.1615697 -0.11748352 1.245
0.16371909 -0.11748352 1.245
0.16586848 -0.11748352 1.245
0.16801788 -0.11748352 1.245
0.17016727 -0.11748352 1.245
0.1731471 -0.11804971 1.251
0.17530686 -0.11804971 1.251
0.1774666 -0.11804971 1.251
0.17962635 -0.11804971 1.251
0.18091422 -0.11748352 1.245
0.18394585 -0.11804971 1.251
0.18610559 -0.11804971 1.251
0.18826534 -0.11804971 1.251
0.1904251 -0.11804971 1.251
0.19258484 -0.11804971 1.251
0.19474459 -0.11804971 1.251
0.19690435 -0.11804971 1.251
0.19906409 -0.11804971 1.251
0.20122384 -0.11804971 1.251
0.20338359 -0.11804971 1.251
0.20554334 -0.11804971 1.251
0.20770308 -0.11804971 1.251
0.20986283 -0.11804971 1.251
0.21202259 -0.11804971 1.251
0.21418233 -0.11804971 1.251
0.21634208 -0.11804971 1.251
0.21850184 -0.11804971 1.251
0.22066158 -0.11804971 1.251
0.22175263 -0.11748352 1.245
0.22390202 -0.11748352 1.245
0.22714083 -0.11804971 1.251
0.22820081 -0.11748352 1.245
0.2303502 -0.11748352 1.245
0.23249958 -0.11748352 1.245
0.23464897 -0.11748352 1.245
0.23679836 -0.11748352 1.245
0.23894775 -0.11748352 1.245
0.24109715 -0.11748352 1.245
0.24324654 -0.11748352 1.245
0.24539593 -0.11748352 1.245
0.24754532 -0.11748352 1.245
0.24969471 -0.11748352 1.245
0.25184411 -0.11748352 1.245
0.25399348 -0.11748352 1.245
0.25614288 -0.11748352 1.245
0.25829226 -0.11748352 1.245
0.26044166 -0.11748352 1.245
0.26259106 -0.11748352 1.245
0.26474044 -0.11748352 1.245
0.26688984 -0.11748352 1.245
0.26903921 -0.11748352 1.245
0.26988167 -0.11691733 1.239
0.27333799 -0.11748352 1.245
0.27548739 -0.11748352 1.245
0.2776368 -0.11748352 1.245
0.27978617 -0.11748352 1.245
0.28193557 -0.11748352 1.245
0.28408495 -0.11748352 1.245
0.28623435 -0.11748352 1.245
0.28838372 -0.11748352 1.245
0.29053313 -0.11748352 1.245
0.29268253 -0.11748352 1.245
0.2948319 -0.11748352 1.245
0.2969813 -0.11748352 1.245
0.29913068 -0.11748352 1.245
0.30128008 -0.11748352 1.245
0.30342945 -0.11748352 1.245
0.30557886 -0.11748352 1.245
0.30772826 -0.11748352 1.245
0.30987763 -0.11748352 1.245
0.31202704 -0.11748352 1.245
0.31417641 -0.11748352 1.245
0.31632581 -0.11748352 1.245
0.31847519 -0.11748352 1.245
0.32062459 -0.11748352 1.245
0.32277399 -0.11748352 1.245
0.32648927 -0.11804971 1.251
0.32864901 -0.11804971 1.251
0.33080879 -0.11804971 1.251
0.33296853 -0.11804971 1.251
0.33352092 -0.11748352 1.245
0.33567032 -0.11748352 1.245
0.33781973 -0.11748352 1.245
0.3399691 -0.11748352 1.245
0.3421185 -0.11748352 1.245
0.34426787 -0.11748352 1.245
0.34641728 -0.11748352 1.245
0.34856665 -0.11748352 1.245
0.35071605 -0.11748352 1.245
0.35286546 -0.11748352 1.245
0.35501483 -0.11748352 1.245
0.35716423 -0.11748352 1.245
0.35931361 -0.11748352 1.245
0.36146301 -0.11748352 1.245
0.36361238 -0.11748352 1.245
0.36576179 -0.11748352 1.245
0.36791119 -0.11748352 1.245
0.37006056 -0.11748352 1.245
0.37220997 -0.11748352 1.245
0.37616351 -0.11804971 1.251
0.37832326 -0.11804971 1.251
0.380483 -0.11804971 1.251
0.38264275 -0.11804971 1.251
0.38480249 -0.11804971 1.251
0.3851063 -0.11748352 1.245
0.3872557 -0.11748352 1.245
0.38940507 -0.11748352 1.245
0.39155447 -0.11748352 1.245
0.39370388 -0.11748352 1.245
0.39585325 -0.11748352 1.245
0.39800265 -0.11748352 1.245
0.40015203 -0.11748352 1.245
0.40230143 -0.11748352 1.245
0.4044508 -0.11748352 1.245
0.40660021 -0.11748352 1.245
0.40874961 -0.11748352 1.245
0.41089898 -0.11748352 1.245
0.41304839 -0.11748352 1.245
0.41519776 -0.11748352 1.245
0.41734716 -0.11748352 1.245
0.41949654 -0.11748352 1.245
0.42164594 -0.11748352 1.245
0.42379534 -0.11748352 1.245
0.42594472 -0.11748352 1.245
0.42809412 -0.11748352 1.245
0.43024349 -0.11748352 1.245
0.4323929 -0.11748352 1.245
0.43454227 -0.11748352 1.245
0.43669167 -0.11748352 1.245
0.44095597 -0.11804971 1.251
0.44311571 -0.11804971 1.251
0.44527546 -0.11804971 1.251
0.44993883 -0.11871026 1.258
0.45211068 -0.11871026 1.258
0.45644921 -0.11927645 1.2640001
0.46080843 -0.11984263 1.27
0.46555293 -0.12050317 1.277
0.4725194 -0.12172991 1.29
0.47732267 -0.12239047 1.2970001
0.47956184 -0.12239047 1.2970001
0.48180097 -0.12239047 1.2970001
0.48404014 -0.12239047 1.2970001
0.48627931 -0.12239047 1.2970001
0.48851848 -0.12239047 1.2970001
0.49075764 -0.12239047 1.2970001
0.49299681 -0.12239047 1.2970001
0.49523598 -0.12239047 1.2970001
0.49747515 -0.12239047 1.2970001
0.49971431 -0.12239047 1.2970001
0.50195348 -0.12239047 1.2970001
0.50419265 -0.12239047 1.2970001
0.50643182 -0.12239047 1.2970001
0.50867099 -0.12239047 1.2970001
0.51091009 -0.12239047 1.2970001
0.51314926 -0.12239047 1.2970001
0.51538843 -0.12239047 1.2970001
0.5176276 -0.12239047 1.2970001
0.51986676 -0.12239047 1.2970001
0.52452123 -0.12295665 1.303
0.52658427 -0.12239047 1.2970001
0.52882344 -0.12239047 1.2970001
0.5310626 -0.12239047 1.2970001
0.53576881 -0.12295665 1.303
0.53554094 -0.12239047 1.2970001
0.53778011 -0.12239047 1.2970001
0.54251736 -0.12295665 1.303
0.5447669 -0.12295665 1.303
0.54449761 -0.12239047 1.2970001
0.54673678 -0.12239047 1.2970001
0.54897588 -0.12239047 1.2970001
0.55121505 -0.12239047 1.2970001
0.55345422 -0.12239047 1.2970001
0.55569339 -0.12239047 1.2970001
0.55793256 -0.12239047 1.2970001
0.56017172 -0.12239047 1.2970001
0.56501263 -0.12295665 1.303
0.56726211 -0.12295665 1.303
0.56951165 -0.12295665 1.303
0.57176119 -0.12295665 1.303
0.57401073 -0.12295665 1.303
0.57626021 -0.12295665 1.303
0.57850975 -0.12295665 1.303
0.58075929 -0.12295665 1.303
0.58300877 -0.12295665 1.303
0.58525831 -0.12295665 1.303
0.58750784 -0.12295665 1.303
0.58975738 -0.12295665 1.303
0.59200686 -0.12295665 1.303
0.5942564 -0.12295665 1.303
0.59650594 -0.12295665 1.303
0.59599835 -0.12239047 1.2970001
0.59823751 -0.12239047 1.2970001
0.60047668 -0.12239047 1.2970001
0.60271585 -0.12239047 1.2970001
0.60495502 -0.12239047 1.2970001
0.60719419 -0.12239047 1.2970001
0.60943335 -0.12239047 1.2970001
0.61167252 -0.12239047 1.2970001
0.61059833 -0.12172991 1.29
0.67378587 -0.13192126 1.398
0.67619938 -0.13192126 1.398
0.67861289 -0.13192126 1.398
0.68492359 -0.13267617 1.406
0.68735093 -0.13267617 1.406
0.68977827 -0.13267617 1.406
0.69220561 -0.13267617 1.406
0.69463295 -0.13267617 1.406
0.69706035 -0.13267617 1.406
0.69948769 -0.13267617 1.406
0.70590883 -0.13343109 1.414
0.70434237 -0.13267617 1.406
0.71079117 -0.13343109 1.414
0.71323228 -0.13343109 1.414
0.71567345 -0.13343109 1.414
0.71811461 -0.13343109 1.414
0.7246325 -0.134186 1.4220001
0.72708744 -0.134186 1.4220001
0.73364669 -0.13494091 1.4299999
0.73611546 -0.13494091 1.4299999
0.73858422 -0.13494091 1.4299999
0.74105299 -0.13494091 1.4299999
0.74768138 -0.13569583 1.438
0.75016391 -0.13569583 1.438
0.75264651 -0.13569583 1.438
0.7509281 -0.13494091 1.4299999
0.75339687 -0.13494091 1.4299999
0.75586569 -0.13494091 1.4299999
0.75833446 -0.13494091 1.4299999
0.76080322 -0.13494091 1.4299999
0.76327199 -0.13494091 1.4299999
0.76145697 -0.134186 1.4220001
0.76391196 -0.134186 1.4220001
0.7663669 -0.134186 1.4220001
0.76449656 -0.13343109 1.414
0.76693773 -0.13343109 1.414
0.76067299 -0.13192126 1.398
0.7587198 -0.13116634 1.39
0.74852544 -0.12899595 1.367
0.74704045 -0.12833542 1.36
0.7455312 -0.12767486 1.353
0.74786705 -0.12767486 1.353
0.74576712 -0.12691996 1.345
0.74419576 -0.1262594 1.3380001
0.74650574 -0.1262594 1.3380001
0.74489802 -0.12559885 1.331
0.7471959 -0.12559885 1.331
0.74949378 -0.12559885 1.331
0.75179166 -0.12559885 1.331
-0.37965989 -0.19620699 2.118
-0.37600332 -0.19620699 2.118
-0.37234679 -0.19620699 2.118
-0.36869022 -0.19620699 2.118
-0.36503366 -0.19620699 2.118
-0.36444828 -0.19787446 2.1359999
-0.36076066 -0.19787446 2.1359999
-0.27237988 -0.16091196 1.737
-0.26938108 -0.16091196 1.737
-0.26638231 -0.16091196 1.737
-0.26156393 -0.15980031 1.725
-0.25858587 -0.15980031 1.725
-0.25560778 -0.15980031 1.725
-0.25262973 -0.15980031 1.725
-0.25138837 -0.16091196 1.737
-0.24667358 -0.15980031 1.725
-0.24369551 -0.15980031 1.725
-0.24071744 -0.15980031 1.725
-0.23773937 -0.15980031 1.725
-0.2347613 -0.15980031 1.725
-0.23178323 -0.15980031 1.725
-0.23039684 -0.16091196 1.737
-0.22739805 -0.16091196 1.737
-0.22439927 -0.16091196 1.737
-0.21987094 -0.15980031 1.725
-0.21840169 -0.16091196 1.737
-0.21689101 -0.1620236 1.749
-0.21386589 -0.16433956 1.774
-0.21080323 -0.16433956 1.774
-0.20481297 -0.1620236 1.749
-0.20179348 -0.1620236 1.749
-0.19877397 -0.1620236 1.749
-0.17519988 -0.15980031 1.725
-0.15514249 -0.15757699 1.701
-0.15327962 -0.15868865 1.7130001
-0.15032227 -0.15868865 1.7130001
-0.14736491 -0.15868865 1.7130001
0.01116593 -0.11588997 1.251
0.013325679 -0.11588997 1.251
0.015485428 -0.11588997 1.251
0.017645177 -0.11588997 1.251
0.019804927 -0.11588997 1.251
0.021964675 -0.11588997 1.251
0.024124423 -0.11588997 1.251
0.026284173 -0.11588997 1.251
0.028443921 -0.11588997 1.251
0.030603671 -0.11588997 1.251
0.032763422 -0.11588997 1.251
0.03492317 -0.11588997 1.251
0.037082918 -0.11588997 1.251
0.039242666 -0.11588997 1.251
0.041402414 -0.11588997 1.251
0.043562166 -0.11588997 1.251
0.045721915 -0.11588997 1.251
0.047881663 -0.11588997 1.251
0.050041411 -0.11588997 1.251
0.052201159 -0.11588997 1.251
0.054360908 -0.11588997 1.251
0.056520659 -0.11588997 1.251
0.058680408 -0.11588997 1.251
0.060840156 -0.11588997 1.251
0.062999904 -0.11588997 1.251
0.064847134 -0.11533413 1.245
0.06699653 -0.11533413 1.245
0.069145918 -0.11533413 1.245
0.071638905 -0.11588997 1.251
0.073798649 -0.11588997 1.251
0.07559409 -0.11533413 1.245
0.077743478 -0.11533413 1.245
0.079892866 -0.11533413 1.245
0.082042262 -0.11533413 1.245
0.08419165 -0.11533413 1.245
0.086341038 -0.11533413 1.245
0.088490427 -0.11533413 1.245
0.090639822 -0.11533413 1.245
0.09278921 -0.11533413 1.245
0.094938599 -0.11533413 1.245
0.097087994 -0.11533413 1.245
0.099237382 -0.11533413 1.245
0.10187539 -0.11588997 1.251
0.10353616 -0.11533413 1.245
0.10619488 -0.11588997 1.251
0.10835464 -0.11588997 1.251
0.11051438 -0.11588997 1.251
0.11267413 -0.11588997 1.251
0.11483388 -0.11588997 1.251
0.11699363 -0.11588997 1.251
0.11915338 -0.11588997 1.251
0.12131312 -0.11588997 1.251
0.12347288 -0.11588997 1.251
0.12563263 -0.11588997 1.251
0.12779237 -0.11588997 1.251
0.12995212 -0.11588997 1.251
0.13211188 -0.11588997 1.251
0.13427162 -0.11588997 1.251
0.13643137 -0.11588997 1.251
0.13859113 -0.11588997 1.251
0.14075087 -0.11588997 1.251
0.14291061 -0.11588997 1.251
0.14507036 -0.11588997 1.251
0.14723012 -0.11588997 1.251
0.14938986 -0.11588997 1.251
0.15154961 -0.11588997 1.251
0.15370937 -0.11588997 1.251
0.15586911 -0.11588997 1.251
0.15727092 -0.11533413 1.245
0.15942031 -0.11533413 1.245
0.1615697 -0.11533413 1.245
0.16371909 -0.11533413 1.245
0.16586848 -0.11533413 1.245
0.16801788 -0.11533413 1.245
0.17016727 -0.11533413 1.245
0.17231666 -0.11533413 1.245
0.17446604 -0.11533413 1.245
0.17661543 -0.11533413 1.245
0.17876482 -0.11533413 1.245
0.18091422 -0.11533413 1.245
0.18394585 -0.11588997 1.251
0.18610559 -0.11588997 1.251
0.18826534 -0.11588997 1.251
0.1904251 -0.11588997 1.251
0.19258484 -0.11588997 1.251
0.19474459 -0.11588997 1.251
0.19690435 -0.11588997 1.251
0.19906409 -0.11588997 1.251
0.20122384 -0.11588997 1.251
0.20338359 -0.11588997 1.251
0.20554334 -0.11588997 1.251
0.20770308 -0.11588997 1.251
0.20986283 -0.11588997 1.251
0.21202259 -0.11588997 1.251
0.21418233 -0.11588997 1.251
0.21634208 -0.11588997 1.251
0.21850184 -0.11588997 1.251
0.22066158 -0.11588997 1.251
0.22175263 -0.11533413 1.245
0.22390202 -0.11533413 1.245
0.22714083 -0.11588997 1.251
0.22820081 -0.11533413 1.245
0.2303502 -0.11533413 1.245
0.23249958 -0.11533413 1.245
0.23464897 -0.11533413 1.245
0.23679836 -0.11533413 1.245
0.23894775 -0.11533413 1.245
0.24109715 -0.11533413 1.245
0.24324654 -0.11533413 1.245
0.24539593 -0.11533413 1.245
0.24754532 -0.11533413 1.245
0.24969471 -0.11533413 1.245
0.25184411 -0.11533413 1.245
0.25399348 -0.11533413 1.245
0.25614288 -0.11533413 1.245
0.25829226 -0.11533413 1.245
0.26044166 -0.11533413 1.245
0.26259106 -0.11533413 1.245
0.26474044 -0.11533413 1.245
0.26688984 -0.11533413 1.245
0.26903921 -0.11533413 1.245
0.26988167 -0.1147783 1.239
0.27333799 -0.11533413 1.245
0.27548739 -0.11533413 1.245
0.27629876 -0.1147783 1.239
0.27978617 -0.11533413 1.245
0.28193557 -0.11533413 1.245
0.28408495 -0.11533413 1.245
0.28623435 -0.11533413 1.245
0.28838372 -0.11533413 1.245
0.29053313 -0.11533413 1.245
0.29268253 -0.11533413 1.245
0.29625279 -0.11588997 1.251
0.2969813 -0.11533413 1.245
0.29913068 -0.11533413 1.245
0.30273205 -0.11588997 1.251
0.30342945 -0.11533413 1.245
0.30557886 -0.11533413 1.245
0.30772826 -0.11533413 1.245
0.30987763 -0.11533413 1.245
0.31202704 -0.11533413 1.245
0.31417641 -0.11533413 1.245
0.31632581 -0.11533413 1.245
0.31847519 -0.11533413 1.245
0.32062459 -0.11533413 1.245
0.32277399 -0.11533413 1.245
0.32648927 -0.11588997 1.251
0.32864901 -0.11588997 1.251
0.33080879 -0.11588997 1.251
0.33137155 -0.11533413 1.245
0.33352092 -0.11533413 1.245
0.33567032 -0.11533413 1.245
0.33781973 -0.11533413 1.245
0.3399691 -0.11533413 1.245
0.3421185 -0.11533413 1.245
0.34426787 -0.11533413 1.245
0.34641728 -0.11533413 1.245
0.34856665 -0.11533413 1.245
0.35071605 -0.11533413 1.245
0.35286546 -0.11533413 1.245
0.35501483 -0.11533413 1.245
0.35716423 -0.11533413 1.245
0.35931361 -0.11533413 1.245
0.36146301 -0.11533413 1.245
0.36361238 -0.11533413 1.245
0.36576179 -0.11533413 1.245
0.36791119 -0.11533413 1.245
0.37006056 -0.11533413 1.245
0.37220997 -0.11533413 1.245
0.37435934 -0.11533413 1.245
0.37832326 -0.11588997 1.251
0.37865812 -0.11533413 1.245
0.38264275 -0.11588997 1.251
0.38295692 -0.11533413 1.245
0.3851063 -0.11533413 1.245
0.3872557 -0.11533413 1.245
0.38940507 -0.11533413 1.245
0.39155447 -0.11533413 1.245
0.39370388 -0.11533413 1.245
0.39585325 -0.11533413 1.245
0.39800265 -0.11533413 1.245
0.40015203 -0.11533413 1.245
0.40230143 -0.11533413 1.245
0.4044508 -0.11533413 1.245
0.40855974 -0.11588997 1.251
0.41071948 -0.11588997 1.251
0.41089898 -0.11533413 1.245
0.41304839 -0.11533413 1.245
0.41719875 -0.11588997 1.251
0.41734716 -0.11533413 1.245
0.41949654 -0.11533413 1.245
0.42164594 -0.11533413 1.245
0.42379534 -0.11533413 1.245
0.42594472 -0.11533413 1.245
0.42809412 -0.11533413 1.245
0.43024349 -0.11533413 1.245
0.4323929 -0.11533413 1.245
0.43454227 -0.11533413 1.245
0.43669167 -0.11533413 1.245
0.44095597 -0.11588997 1.251
0.44311571 -0.11588997 1.251
0.44527546 -0.11588997 1.251
0.44743523 -0.11588997 1.251
0.45211068 -0.11653843 1.258
0.45644921 -0.11709426 1.2640001
0.46080843 -0.11765008 1.27
0.46555293 -0.11829854 1.277
0.4725194 -0.11950283 1.29
0.47732267 -0.1201513 1.2970001
0.47956184 -0.1201513 1.2970001
0.48180097 -0.1201513 1.2970001
0.48404014 -0.1201513 1.2970001
0.48627931 -0.1201513 1.2970001
0.48851848 -0.1201513 1.2970001
0.49075764 -0.1201513 1.2970001
0.49299681 -0.1201513 1.2970001
0.49523598 -0.1201513 1.2970001
0.49747515 -0.1201513 1.2970001
0.49971431 -0.1201513 1.2970001
0.50195348 -0.1201513 1.2970001
0.50419265 -0.1201513 1.2970001
0.50643182 -0.1201513 1.2970001
0.50867099 -0.1201513 1.2970001
0.51091009 -0.1201513 1.2970001
0.51314926 -0.1201513 1.2970001
0.51538843 -0.1201513 1.2970001
0.53778011 -0.1201513 1.2970001
0.54251736 -0.12070712 1.303
0.5447669 -0.12070712 1.303
0.54701644 -0.12070712 1.303
0.54673678 -0.1201513 1.2970001
0.55151546 -0.12070712 1.303
0.553765 -0.12070712 1.303
0.55345422 -0.1201513 1.2970001
0.55569339 -0.1201513 1.2970001
0.55793256 -0.1201513 1.2970001
0.56017172 -0.1201513 1.2970001
0.56501263 -0.12070712 1.303
0.56726211 -0.12070712 1.303
0.56951165 -0.12070712 1.303
0.57176119 -0.12070712 1.303
0.57401073 -0.12070712 1.303
0.57626021 -0.12070712 1.303
0.57850975 -0.12070712 1.303
0.58075929 -0.12070712 1.303
0.58300877 -0.12070712 1.303
0.58525831 -0.12070712 1.303
0.58750784 -0.12070712 1.303
0.58975738 -0.12070712 1.303
0.59200686 -0.12070712 1.303
0.5942564 -0.12070712 1.303
0.66513067 -0.12876663 1.39
0.66753042 -0.12876663 1.39
0.6699301 -0.12876663 1.39
0.67232984 -0.12876663 1.39
0.67861289 -0.12950772 1.398
0.68102646 -0.12950772 1.398
0.68343997 -0.12950772 1.398
0.68585348 -0.12950772 1.398
0.68826705 -0.12950772 1.398
0.69068056 -0.12950772 1.398
0.69309413 -0.12950772 1.398
0.69948769 -0.13024883 1.406
0.70191503 -0.13024883 1.406
0.70434237 -0.13024883 1.406
0.7067697 -0.13024883 1.406
0.70919704 -0.13024883 1.406
0.71162438 -0.13024883 1.406
0.71405172 -0.13024883 1.406
0.72055578 -0.13098994 1.414
0.72708744 -0.13173103 1.4220001
0.72954243 -0.13173103 1.4220001
0.73611546 -0.13247213 1.4299999
0.73858422 -0.13247213 1.4299999
0.74519879 -0.13321324 1.438
0.74768138 -0.13321324 1.438
0.75016391 -0.13321324 1.438
0.74845934 -0.13247213 1.4299999
0.7509281 -0.13247213 1.4299999
0.75339687 -0.13247213 1.4299999
0.75586569 -0.13247213 1.4299999
0.75833446 -0.13247213 1.4299999
0.75654703 -0.13173103 1.4220001
0.75900203 -0.13173103 1.4220001
0.76145697 -0.13173103 1.4220001
0.76391196 -0.13173103 1.4220001
0.7663669 -0.13173103 1.4220001
0.76449656 -0.13098994 1.414
0.76259857 -0.13024883 1.406
0.76067299 -0.12950772 1.398
0.75489891 -0.12811816 1.383
0.75290602 -0.12737705 1.375
0.74704045 -0.12598749 1.36
0.7455312 -0.12533903 1.353
0.74786705 -0.12533903 1.353
0.74576712 -0.12459792 1.345
0.74419576 -0.12394946 1.3380001
0.74650574 -0.12394946 1.3380001
0.74489802 -0.12330098 1.331
0.7471959 -0.12330098 1.331
0.74949378 -0.12330098 1.331
0.74783784 -0.12265252 1.324
-0.3728078 -0.19091401 2.0999999
-0.36918232 -0.19091401 2.0999999
-0.36869022 -0.19255044 2.118
-0.36503366 -0.19255044 2.118
-0.36137712 -0.19255044 2.118
-0.35772055 -0.19255044 2.118
-0.27943236 -0.15682223 1.725
-0.27537867 -0.15791316 1.737
-0.27237988 -0.15791316 1.737
-0.26938108 -0.15791316 1.737
-0.26638231 -0.15791316 1.737
-0.26156393 -0.15682223 1.725
-0.25858587 -0.15682223 1.725
-0.25560778 -0.15682223 1.725
-0.25262973 -0.15682223 1.725
-0.24965166 -0.15682223 1.725
-0.24667358 -0.15682223 1.725
-0.24369551 -0.15682223 1.725
-0.24071744 -0.15682223 1.725
-0.2199105 -0.15900411 1.749
-0.2154029 -0.15791316 1.737
-0.21240412 -0.15791316 1.737
-0.21386589 -0.16127689 1.774
-0.20200253 -0.15682223 1.725
-0.20040897 -0.15791316 1.737
-0.19741018 -0.15791316 1.737
-0.19009024 -0.15682223 1.725
-0.18711217 -0.15682223 1.725
-0.1841341 -0.15682223 1.725
-0.18115602 -0.15682223 1.725
-0.17817795 -0.15682223 1.725
-0.17519988 -0.15682223 1.725
-0.17222181 -0.15682223 1.725
-0.1680664 -0.15573131 1.7130001
-0.15807913 -0.15464036 1.701
-0.15623698 -0.15573131 1.7130001
-0.15327962 -0.15573131 1.7130001
-0.15032227 -0.15573131 1.7130001
-0.14736491 -0.15573131 1.7130001
-0.14541917 -0.15682223 1.725
-0.13946302 -0.15682223 1.725
0.0090061808 -0.11373021 1.251
0.01116593 -0.11373021 1.251
0.013325679 -0.11373021 1.251
0.015485428 -0.11373021 1.251
0.017645177 -0.11373021 1.251
0.019804927 -0.11373021 1.251
0.021964675 -0.11373021 1.251
0.024124423 -0.11373021 1.251
0.026284173 -0.11373021 1.251
0.028443921 -0.11373021 1.251
0.030603671 -0.11373021 1.251
0.032763422 -0.11373021 1.251
0.03492317 -0.11373021 1.251
0.037082918 -0.11373021 1.251
0.039242666 -0.11373021 1.251
0.041402414 -0.11373021 1.251
0.043562166 -0.11373021 1.251
0.045721915 -0.11373021 1.251
0.047881663 -0.11373021 1.251
0.050041411 -0.11373021 1.251
0.052201159 -0.11373021 1.251
0.054360908 -0.11373021 1.251
0.056520659 -0.11373021 1.251
0.058680408 -0.11373021 1.251
0.060840156 -0.11373021 1.251
0.062999904 -0.11373021 1.251
0.064847134 -0.11318474 1.245
0.06699653 -0.11318474 1.245
0.069145918 -0.11318474 1.245
0.071638905 -0.11373021 1.251
0.073798649 -0.11373021 1.251
0.07559409 -0.11318474 1.245
0.077743478 -0.11318474 1.245
0.079892866 -0.11318474 1.245
0.082042262 -0.11318474 1.245
0.08419165 -0.11318474 1.245
0.086341038 -0.11318474 1.245
0.088490427 -0.11318474 1.245
0.090639822 -0.11318474 1.245
0.09278921 -0.11318474 1.245
0.094938599 -0.11318474 1.245
0.097555891 -0.11373021 1.251
0.099715635 -0.11373021 1.251
0.10187539 -0.11373021 1.251
0.10353616 -0.11318474 1.245
0.10619488 -0.11373021 1.251
0.10835464 -0.11373021 1.251
0.11051438 -0.11373021 1.251
0.11267413 -0.11373021 1.251
0.11483388 -0.11373021 1.251
0.11699363 -0.11373021 1.251
0.11915338 -0.11373021 1.251
0.12131312 -0.11373021 1.251
0.12347288 -0.11373021 1.251
0.12563263 -0.11373021 1.251
0.12779237 -0.11373021 1.251
0.12995212 -0.11373021 1.251
0.13211188 -0.11373021 1.251
0.13427162 -0.11373021 1.251
0.13643137 -0.11373021 1.251
0.13859113 -0.11373021 1.251
0.14075087 -0.11373021 1.251
0.14291061 -0.11373021 1.251
0.14507036 -0.11373021 1.251
0.14723012 -0.11373021 1.251
0.14938986 -0.11373021 1.251
0.15154961 -0.11373021 1.251
0.15370937 -0.11373021 1.251
0.15586911 -0.11373021 1.251
0.15727092 -0.11318474 1.245
0.15942031 -0.11318474 1.245
0.1615697 -0.11318474 1.245
0.16371909 -0.11318474 1.245
0.16586848 -0.11318474 1.245
0.16801788 -0.11318474 1.245
0.17016727 -0.11318474 1.245
0.17231666 -0.11318474 1.245
0.17446604 -0.11318474 1.245
0.17661543 -0.11318474 1.245
0.17876482 -0.11318474 1.245
0.18091422 -0.11318474 1.245
0.18306361 -0.11318474 1.245
0.18610559 -0.11373021 1.251
0.18826534 -0.11373021 1.251
0.1904251 -0.11373021 1.251
0.19258484 -0.11373021 1.251
0.19474459 -0.11373021 1.251
0.19595996 -0.11318474 1.245
0.19906409 -0.11373021 1.251
0.20122384 -0.11373021 1.251
0.20338359 -0.11373021 1.251
0.20554334 -0.11373021 1.251
0.20770308 -0.11373021 1.251
0.20986283 -0.11373021 1.251
0.21202259 -0.11373021 1.251
0.21418233 -0.11373021 1.251
0.21634208 -0.11373021 1.251
0.21850184 -0.11373021 1.251
0.22066158 -0.11373021 1.251
0.22175263 -0.11318474 1.245
0.22390202 -0.11318474 1.245
0.22714083 -0.11373021 1.251
0.22820081 -0.11318474 1.245
0.2303502 -0.11318474 1.245
0.23249958 -0.11318474 1.245
0.23464897 -0.11318474 1.245
0.23679836 -0.11318474 1.245
0.23894775 -0.11318474 1.245
0.24109715 -0.11318474 1.245
0.24324654 -0.11318474 1.245
0.24539593 -0.11318474 1.245
0.24754532 -0.11318474 1.245
0.24969471 -0.11318474 1.245
0.25184411 -0.11318474 1.245
0.25399348 -0.11318474 1.245
0.25614288 -0.11318474 1.245
0.25829226 -0.11318474 1.245
0.26044166 -0.11318474 1.245
0.26259106 -0.11318474 1.245
0.26474044 -0.11318474 1.245
0.26688984 -0.11318474 1.245
0.26774263 -0.11263927 1.239
0.26988167 -0.11263927 1.239
0.2720207 -0.11263927 1.239
0.27415973 -0.11263927 1.239
0.27629876 -0.11263927 1.239
0.27978617 -0.11318474 1.245
0.28193557 -0.11318474 1.245
0.28408495 -0.11318474 1.245
0.28623435 -0.11318474 1.245
0.28838372 -0.11318474 1.245
0.29053313 -0.11318474 1.245
0.29268253 -0.11318474 1.245
0.2948319 -0.11318474 1.245
0.2969813 -0.11318474 1.245
0.29913068 -0.11318474 1.245
0.30273205 -0.11373021 1.251
0.30342945 -0.11318474 1.245
0.30557886 -0.11318474 1.245
0.30772826 -0.11318474 1.245
0.30987763 -0.11318474 1.245
0.31202704 -0.11318474 1.245
0.31417641 -0.11318474 1.245
0.31632581 -0.11318474 1.245
0.31847519 -0.11318474 1.245
0.32062459 -0.11318474 1.245
0.32277399 -0.11318474 1.245
0.32492337 -0.11318474 1.245
0.32707277 -0.11318474 1.245
0.32922214 -0.11318474 1.245
0.33137155 -0.11318474 1.245
0.33352092 -0.11318474 1.245
0.33567032 -0.11318474 1.245
0.33781973 -0.11318474 1.245
0.3399691 -0.11318474 1.245
0.3421185 -0.11318474 1.245
0.34426787 -0.11318474 1.245
0.34641728 -0.11318474 1.245
0.34856665 -0.11318474 1.245
0.35071605 -0.11318474 1.245
0.35286546 -0.11318474 1.245
0.35501483 -0.11318474 1.245
0.35716423 -0.11318474 1.245
0.35931361 -0.11318474 1.245
0.36146301 -0.11318474 1.245
0.36361238 -0.11318474 1.245
0.36576179 -0.11318474 1.245
0.36791119 -0.11318474 1.245
0.37006056 -0.11318474 1.245
0.37220997 -0.11318474 1.245
0.37435934 -0.11318474 1.245
0.37650874 -0.11318474 1.245
0.37865812 -0.11318474 1.245
0.38080752 -0.11318474 1.245
0.38295692 -0.11318474 1.245
0.3851063 -0.11318474 1.245
0.3872557 -0.11318474 1.245
0.38940507 -0.11318474 1.245
0.39155447 -0.11318474 1.245
0.39370388 -0.11318474 1.245
0.39585325 -0.11318474 1.245
0.39800265 -0.11318474 1.245
0.40015203 -0.11318474 1.245
0.40230143 -0.11318474 1.245
0.4044508 -0.11318474 1.245
0.40855974 -0.11373021 1.251
0.41071948 -0.11373021 1.251
0.41089898 -0.11318474 1.245
0.41304839 -0.11318474 1.245
0.41519776 -0.11318474 1.245
0.41734716 -0.11318474 1.245
0.41949654 -0.11318474 1.245
0.42164594 -0.11318474 1.245
0.42379534 -0.11318474 1.245
0.42594472 -0.11318474 1.245
0.42809412 -0.11318474 1.245
0.43024349 -0.11318474 1.245
0.4323929 -0.11318474 1.245
0.43454227 -0.11318474 1.245
0.43669167 -0.11318474 1.245
0.44095597 -0.11373021 1.251
0.44311571 -0.11373021 1.251
0.44527546 -0.11373021 1.251
0.44743523 -0.11373021 1.251
0.44959497 -0.11373021 1.251
0.45428252 -0.11436659 1.258
0.4586314 -0.11491206 1.2640001
0.46081361 -0.11491206 1.2640001
0.46775758 -0.1160939 1.277
0.4747465 -0.11727575 1.29
0.47956184 -0.11791214 1.2970001
0.48180097 -0.11791214 1.2970001
0.48404014 -0.11791214 1.2970001
0.48627931 -0.11791214 1.2970001
0.48851848 -0.11791214 1.2970001
