# .PCD v0.7 - Point Cloud Data file format
VERSION 0.7
FIELDS x y z
SIZE 4 4 4
TYPE F F F
COUNT 1 1 1
WIDTH 1594
HEIGHT 1
VIEWPOINT 0 0 0 1 0 0 0
POINTS 1594
DATA ascii
0.1737165 -0.22300054 1.544
0.17535394 -0.22170065 1.535
0.178004 -0.22170065 1.535
0.18171327 -0.22300054 1.544
0.18437885 -0.22300054 1.544
0.18704444 -0.22300054 1.544
0.18971004 -0.22300054 1.544
0.19237562 -0.22300054 1.544
0.19630443 -0.22444484 1.554
0.19898729 -0.22444484 1.554
0.20037238 -0.22300054 1.544
0.20435299 -0.22444484 1.554
0.20703584 -0.22444484 1.554
0.2097187 -0.22444484 1.554
0.21240155 -0.22444484 1.554
0.2150844 -0.22444484 1.554
0.21776725 -0.22444484 1.554
0.22045012 -0.22444484 1.554
0.22313297 -0.22444484 1.554
0.22581582 -0.22444484 1.554
0.22849867 -0.22444484 1.554
0.23118153 -0.22444484 1.554
0.23386438 -0.22444484 1.554
0.23502505 -0.22300054 1.544
0.23630513 -0.22170065 1.535
0.24035624 -0.22300054 1.544
0.24302182 -0.22300054 1.544
0.24568741 -0.22300054 1.544
0.248353 -0.22300054 1.544
0.25101858 -0.22300054 1.544
0.25532719 -0.22444484 1.554
0.25801006 -0.22444484 1.554
0.26069292 -0.22444484 1.554
0.26337576 -0.22444484 1.554
0.26605862 -0.22444484 1.554
0.26874149 -0.22444484 1.554
0.27142432 -0.22444484 1.554
0.27410719 -0.22444484 1.554
0.27679002 -0.22444484 1.554
0.27947289 -0.22444484 1.554
0.28215575 -0.22444484 1.554
0.28300565 -0.22300054 1.544
0.28567126 -0.22300054 1.544
0.29020432 -0.22444484 1.554
0.29288715 -0.22444484 1.554
0.29825285 -0.22444484 1.554
0.30093572 -0.22444484 1.554
0.3016648 -0.22300054 1.544
0.30433038 -0.22300054 1.544
0.30699596 -0.22300054 1.544
0.30966157 -0.22300054 1.544
0.31232715 -0.22300054 1.544
0.31499273 -0.22300054 1.544
0.31765833 -0.22300054 1.544
0.32032391 -0.22300054 1.544
0.32298949 -0.22300054 1.544
0.3256551 -0.22300054 1.544
0.32832068 -0.22300054 1.544
0.33098626 -0.22300054 1.544
0.33365187 -0.22300054 1.544
0.33631745 -0.22300054 1.544
0.33898303 -0.22300054 1.544
0.34386137 -0.22444484 1.554
0.34654424 -0.22444484 1.554
0.34922707 -0.22444484 1.554
0.35190994 -0.22444484 1.554
0.35727564 -0.22444484 1.554
0.3599585 -0.22444484 1.554
0.36030775 -0.22300054 1.544
0.36297333 -0.22300054 1.544
0.36800706 -0.22444484 1.554
0.3706899 -0.22444484 1.554
0.37337276 -0.22444484 1.554
0.37605563 -0.22444484 1.554
0.37873846 -0.22444484 1.554
0.37896687 -0.22300054 1.544
0.38163248 -0.22300054 1.544
0.38429806 -0.22300054 1.544
0.38696364 -0.22300054 1.544
0.38962924 -0.22300054 1.544
0.39229482 -0.22300054 1.544
0.3949604 -0.22300054 1.544
0.39762601 -0.22300054 1.544
0.40029159 -0.22300054 1.544
0.40295717 -0.22300054 1.544
0.40562278 -0.22300054 1.544
0.41093272 -0.22444484 1.554
0.40855849 -0.22170065 1.535
0.41361955 -0.22300054 1.544
0.41628513 -0.22300054 1.544
0.41895071 -0.22300054 1.544
0.42434698 -0.22444484 1.554
0.4242819 -0.22300054 1.544
0.42694747 -0.22300054 1.544
0.43239555 -0.22444484 1.554
0.43507838 -0.22444484 1.554
0.43776125 -0.22444484 1.554
0.44044411 -0.22444484 1.554
0.44312695 -0.22444484 1.554
0.44580981 -0.22444484 1.554
0.44849268 -0.22444484 1.554
0.45117551 -0.22444484 1.554
0.45385838 -0.22444484 1.554
0.45654121 -0.22444484 1.554
0.45922408 -0.22444484 1.554
0.46190694 -0.22444484 1.554
0.46757942 -0.22588915 1.564
0.47027954 -0.22588915 1.564
0.47570139 -0.227189 1.573
0.47841704 -0.227189 1.573
0.48113269 -0.227189 1.573
0.48692432 -0.22863331 1.5829999
0.48965722 -0.22863331 1.5829999
0.49239016 -0.22863331 1.5829999
0.49512306 -0.22863331 1.5829999
0.49785599 -0.22863331 1.5829999
0.50058889 -0.22863331 1.5829999
0.50332183 -0.22863331 1.5829999
0.50605476 -0.22863331 1.5829999
0.50878769 -0.22863331 1.5829999
0.51152056 -0.22863331 1.5829999
0.5142535 -0.22863331 1.5829999
0.51698643 -0.22863331 1.5829999
0.51971936 -0.22863331 1.5829999
0.52245229 -0.22863331 1.5829999
0.52518517 -0.22863331 1.5829999
0.5279181 -0.22863331 1.5829999
0.53065103 -0.22863331 1.5829999
0.53338397 -0.22863331 1.5829999
0.53611684 -0.22863331 1.5829999
0.53884977 -0.22863331 1.5829999
0.5415827 -0.22863331 1.5829999
0.54431564 -0.22863331 1.5829999
0.54704857 -0.22863331 1.5829999
0.54978144 -0.22863331 1.5829999
0.55251437 -0.22863331 1.5829999
0.55524731 -0.22863331 1.5829999
0.55798024 -0.22863331 1.5829999
0.56071311 -0.22863331 1.5829999
0.56344604 -0.22863331 1.5829999
0.56617898 -0.22863331 1.5829999
0.56891191 -0.22863331 1.5829999
0.57164484 -0.22863331 1.5829999
0.57437772 -0.22863331 1.5829999
0.57346499 -0.227189 1.573
0.57618064 -0.227189 1.573
0.57889628 -0.227189 1.573
0.58161193 -0.227189 1.573
0.58432758 -0.227189 1.573
0.58704329 -0.227189 1.573
0.58975893 -0.227189 1.573
0.59247458 -0.227189 1.573
0.59519023 -0.227189 1.573
0.59790587 -0.227189 1.573
0.60062152 -0.227189 1.573
0.60333717 -0.227189 1.573
0.60990572 -0.22863331 1.5829999
0.61263859 -0.22863331 1.5829999
0.61537153 -0.22863331 1.5829999
0.61419982 -0.227189 1.573
0.61691546 -0.227189 1.573
0.62357026 -0.22863331 1.5829999
0.6263032 -0.22863331 1.5829999
0.62903613 -0.22863331 1.5829999
0.63176906 -0.22863331 1.5829999
0.695481 -0.24740927 1.7130001
0.69843835 -0.24740927 1.7130001
0.69648224 -0.2456761 1.701
0.70435303 -0.24740927 1.7130001
0.70731044 -0.24740927 1.7130001
0.71026778 -0.24740927 1.7130001
0.70822877 -0.2456761 1.701
0.71618247 -0.24740927 1.7130001
0.71410203 -0.2456761 1.701
0.71703869 -0.2456761 1.701
0.71997529 -0.2456761 1.701
0.72801191 -0.24740927 1.7130001
0.73096925 -0.24740927 1.7130001
0.73392659 -0.24740927 1.7130001
0.73688394 -0.24740927 1.7130001
0.74502409 -0.24914244 1.725
0.74800211 -0.24914244 1.725
0.7509802 -0.24914244 1.725
0.75395828 -0.24914244 1.725
0.75693637 -0.24914244 1.725
0.7599144 -0.24914244 1.725
0.76289248 -0.24914244 1.725
0.76054281 -0.24740927 1.7130001
0.76350015 -0.24740927 1.7130001
0.7664575 -0.24740927 1.7130001
0.76402485 -0.2456761 1.701
0.76696151 -0.2456761 1.701
0.76989812 -0.2456761 1.701
0.77283478 -0.2456761 1.701
0.77075469 -0.24408738 1.6900001
0.77367234 -0.24408738 1.6900001
0.77658999 -0.24408738 1.6900001
0.77443391 -0.24249864 1.679
0.77177691 -0.24076548 1.6670001
0.76489615 -0.23773244 1.646
0.7626071 -0.23614369 1.635
0.76028007 -0.23455496 1.624
0.758385 -0.23311065 1.614
0.75645542 -0.23166636 1.604
0.75922459 -0.23166636 1.604
0.75676817 -0.23007762 1.5930001
0.75951833 -0.23007762 1.5930001
0.76226848 -0.23007762 1.5930001
0.7650187 -0.23007762 1.5930001
0.76294917 -0.22863331 1.5829999
0.76084518 -0.227189 1.573
0.75919211 -0.22588915 1.564
0.75702083 -0.22444484 1.554
0.7597037 -0.22444484 1.554
0.75748056 -0.22300054 1.544
0.76014614 -0.22300054 1.544
0.75836527 -0.22170065 1.535
0.76101536 -0.22170065 1.535
0.75869036 -0.22025634 1.525
0.76132315 -0.22025634 1.525
0.76395595 -0.22025634 1.525
0.76206464 -0.21895649 1.516
0.76468188 -0.21895649 1.516
0.76274389 -0.2176566 1.507
0.76077491 -0.21635674 1.498
0.76336104 -0.21635674 1.498
0.76134539 -0.21505685 1.489
0.75929868 -0.21375699 1.48
0.76185381 -0.21375699 1.48
0.76440889 -0.21375699 1.48
0.76281822 -0.21260154 1.472
0.76068002 -0.21130168 1.4630001
0.75903243 -0.21014623 1.455
0.76154435 -0.21014623 1.455
0.75933015 -0.20884635 1.446
0.76182652 -0.20884635 1.446
0.76009429 -0.20769091 1.438
0.76257688 -0.20769091 1.438
0.76080322 -0.20653546 1.4299999
0.75900203 -0.20538002 1.4220001
0.76145697 -0.20538002 1.4220001
0.76391196 -0.20538002 1.4220001
0.7663669 -0.20538002 1.4220001
0.76449656 -0.20422459 1.414
0.76693773 -0.20422459 1.414
0.76502591 -0.20306914 1.406
0.76308656 -0.2019137 1.398
0.76111954 -0.20075825 1.39
0.76351923 -0.20075825 1.39
0.76591897 -0.20075825 1.39
0.76444948 -0.19974723 1.383
0.76683712 -0.19974723 1.383
0.76922476 -0.19974723 1.383
0.77161241 -0.19974723 1.383
0.77399999 -0.19974723 1.383
0.7718966 -0.1985918 1.375
0.77427042 -0.1985918 1.375
0.77664423 -0.1985918 1.375
-0.5984962 -0.17010315 1.192
-0.59643829 -0.17010315 1.192
-0.59438044 -0.17010315 1.192
-0.59530395 -0.17095935 1.198
-0.59323573 -0.17095935 1.198
-0.59116751 -0.17095935 1.198
-0.59155792 -0.17167288 1.2029999
-0.58948106 -0.17167288 1.2029999
-0.58496273 -0.17095935 1.198
-0.61539179 -0.1830892 1.283
-0.61030924 -0.18223298 1.277
-0.60477126 -0.18123405 1.27
-0.60874683 -0.1830892 1.283
-0.60369533 -0.18223298 1.277
-0.60149074 -0.18223298 1.277
-0.59036958 -0.17952161 1.258
-0.59100312 -0.18037784 1.2640001
-0.59667987 -0.1869422 1.3099999
-0.59441823 -0.1869422 1.3099999
-0.59215665 -0.1869422 1.3099999
-0.58989501 -0.1869422 1.3099999
-0.5844934 -0.18594328 1.303
-0.58537185 -0.1869422 1.3099999
-0.58311021 -0.1869422 1.3099999
-0.87643331 -0.28540796 2
-0.87298048 -0.28540796 2
-0.86952764 -0.28540796 2
-0.8660748 -0.28540796 2
-0.86952293 -0.28769124 2.016
-0.87291586 -0.28997448 2.0320001
-0.88395494 -0.29482642 2.066
-0.88763237 -0.29725239 2.0829999
-0.89125109 -0.29967833 2.0999999
-0.89523387 -0.30224702 2.118
-0.89915442 -0.30481568 2.1359999
-0.8954668 -0.30481568 2.1359999
-0.89929426 -0.30738437 2.154
-0.89557552 -0.30738437 2.154
-0.89185685 -0.30738437 2.154
-0.88813812 -0.30738437 2.154
-0.88441944 -0.30738437 2.154
-0.88070071 -0.30738437 2.154
-0.8847177 -0.31009576 2.1730001
-0.88096619 -0.31009576 2.1730001
-0.87721467 -0.31009576 2.1730001
0.024601802 -0.22176199 1.554
0.027284656 -0.22176199 1.554
0.029967509 -0.22176199 1.554
0.032650363 -0.22176199 1.554
0.035333216 -0.22176199 1.554
0.03801607 -0.22176199 1.554
0.040698923 -0.22176199 1.554
0.043381777 -0.22176199 1.554
0.04606463 -0.22176199 1.554
0.048747484 -0.22176199 1.554
0.051430337 -0.22176199 1.554
0.054113191 -0.22176199 1.554
0.056796044 -0.22176199 1.554
0.059478898 -0.22176199 1.554
0.062161751 -0.22176199 1.554
0.064844608 -0.22176199 1.554
0.067527458 -0.22176199 1.554
0.070210315 -0.22176199 1.554
0.072893165 -0.22176199 1.554
0.075576022 -0.22176199 1.554
0.078258872 -0.22176199 1.554
0.080941729 -0.22176199 1.554
0.083624579 -0.22176199 1.554
0.086307436 -0.22176199 1.554
0.088990286 -0.22176199 1.554
0.091673143 -0.22176199 1.554
0.094355993 -0.22176199 1.554
0.097663291 -0.22318903 1.564
0.0997217 -0.22176199 1.554
0.10240456 -0.22176199 1.554
0.10508741 -0.22176199 1.554
0.10777026 -0.22176199 1.554
0.11045311 -0.22176199 1.554
0.11313597 -0.22176199 1.554
0.11581882 -0.22176199 1.554
0.11926424 -0.22318903 1.564
0.12923309 -0.22176199 1.554
0.13106707 -0.22033495 1.544
0.13373266 -0.22033495 1.544
0.13728166 -0.22176199 1.554
0.13996451 -0.22176199 1.554
0.14264736 -0.22176199 1.554
0.14533021 -0.22176199 1.554
0.14801307 -0.22176199 1.554
0.15069592 -0.22176199 1.554
0.15337877 -0.22176199 1.554
0.15606162 -0.22176199 1.554
0.15874448 -0.22176199 1.554
0.16142733 -0.22176199 1.554
0.16411018 -0.22176199 1.554
0.16571973 -0.22033495 1.544
0.16838531 -0.22033495 1.544
0.17105091 -0.22033495 1.544
0.17270389 -0.2190506 1.535
0.17535394 -0.2190506 1.535
0.178004 -0.2190506 1.535
0.18171327 -0.22033495 1.544
0.18437885 -0.22033495 1.544
0.18825586 -0.22176199 1.554
0.19093873 -0.22176199 1.554
0.19362158 -0.22176199 1.554
0.19630443 -0.22176199 1.554
0.19898729 -0.22176199 1.554
0.20167014 -0.22176199 1.554
0.20435299 -0.22176199 1.554
0.20703584 -0.22176199 1.554
0.2097187 -0.22176199 1.554
0.21240155 -0.22176199 1.554
0.2150844 -0.22176199 1.554
0.21776725 -0.22176199 1.554
0.22045012 -0.22176199 1.554
0.22313297 -0.22176199 1.554
0.22581582 -0.22176199 1.554
0.22849867 -0.22176199 1.554
0.23118153 -0.22176199 1.554
0.23386438 -0.22176199 1.554
0.23502505 -0.22033495 1.544
0.23769064 -0.22033495 1.544
0.24035624 -0.22033495 1.544
0.24302182 -0.22033495 1.544
0.24568741 -0.22033495 1.544
0.248353 -0.22033495 1.544
0.25101858 -0.22033495 1.544
0.25532719 -0.22176199 1.554
0.25801006 -0.22176199 1.554
0.26069292 -0.22176199 1.554
0.26337576 -0.22176199 1.554
0.26605862 -0.22176199 1.554
0.26874149 -0.22176199 1.554
0.27142432 -0.22176199 1.554
0.27410719 -0.22176199 1.554
0.27679002 -0.22176199 1.554
0.27947289 -0.22176199 1.554
0.28215575 -0.22176199 1.554
0.28300565 -0.22033495 1.544
0.28567126 -0.22033495 1.544
0.29100242 -0.22033495 1.544
0.29633361 -0.22033495 1.544
0.30093572 -0.22176199 1.554
0.3016648 -0.22033495 1.544
0.30433038 -0.22033495 1.544
0.30699596 -0.22033495 1.544
0.30966157 -0.22033495 1.544
0.31232715 -0.22033495 1.544
0.31499273 -0.22033495 1.544
0.31765833 -0.22033495 1.544
0.32032391 -0.22033495 1.544
0.32298949 -0.22033495 1.544
0.3256551 -0.22033495 1.544
0.32832068 -0.22033495 1.544
0.33098626 -0.22033495 1.544
0.33365187 -0.22033495 1.544
0.33631745 -0.22033495 1.544
0.33898303 -0.22033495 1.544
0.34164864 -0.22033495 1.544
0.34431422 -0.22033495 1.544
0.34922707 -0.22176199 1.554
0.35190994 -0.22176199 1.554
0.35727564 -0.22176199 1.554
0.3599585 -0.22176199 1.554
0.36264136 -0.22176199 1.554
0.36297333 -0.22033495 1.544
0.36800706 -0.22176199 1.554
0.3706899 -0.22176199 1.554
0.37337276 -0.22176199 1.554
0.37363571 -0.22033495 1.544
0.37630129 -0.22033495 1.544
0.37896687 -0.22033495 1.544
0.38163248 -0.22033495 1.544
0.38429806 -0.22033495 1.544
0.38696364 -0.22033495 1.544
0.38962924 -0.22033495 1.544
0.39229482 -0.22033495 1.544
0.3949604 -0.22033495 1.544
0.39762601 -0.22033495 1.544
0.40029159 -0.22033495 1.544
0.40295717 -0.22033495 1.544
0.40562278 -0.22033495 1.544
0.40828836 -0.22033495 1.544
0.40589687 -0.21762356 1.525
0.41120854 -0.2190506 1.535
0.41628513 -0.22033495 1.544
0.41895071 -0.22033495 1.544
0.42161632 -0.22033495 1.544
0.4242819 -0.22033495 1.544
0.42694747 -0.22033495 1.544
0.42961308 -0.22033495 1.544
0.43507838 -0.22176199 1.554
0.43776125 -0.22176199 1.554
0.44044411 -0.22176199 1.554
0.44312695 -0.22176199 1.554
0.44580981 -0.22176199 1.554
0.44849268 -0.22176199 1.554
0.45117551 -0.22176199 1.554
0.45385838 -0.22176199 1.554
0.45654121 -0.22176199 1.554
0.45922408 -0.22176199 1.554
0.46190694 -0.22176199 1.554
0.46757942 -0.22318903 1.564
0.47027954 -0.22318903 1.564
0.47570139 -0.22447336 1.573
0.47841704 -0.22447336 1.573
0.48419139 -0.22590038 1.5829999
0.48692432 -0.22590038 1.5829999
0.48965722 -0.22590038 1.5829999
0.49239016 -0.22590038 1.5829999
0.49512306 -0.22590038 1.5829999
0.49785599 -0.22590038 1.5829999
0.50058889 -0.22590038 1.5829999
0.50332183 -0.22590038 1.5829999
0.50605476 -0.22590038 1.5829999
0.51200175 -0.22732745 1.5930001
0.51152056 -0.22590038 1.5829999
0.5142535 -0.22590038 1.5829999
0.51698643 -0.22590038 1.5829999
0.51971936 -0.22590038 1.5829999
0.52245229 -0.22590038 1.5829999
0.52518517 -0.22590038 1.5829999
0.5279181 -0.22590038 1.5829999
0.53065103 -0.22590038 1.5829999
0.53338397 -0.22590038 1.5829999
0.53611684 -0.22590038 1.5829999
0.53884977 -0.22590038 1.5829999
0.5415827 -0.22590038 1.5829999
0.54431564 -0.22590038 1.5829999
0.54704857 -0.22590038 1.5829999
0.54978144 -0.22590038 1.5829999
0.55251437 -0.22590038 1.5829999
0.55524731 -0.22590038 1.5829999
0.55798024 -0.22590038 1.5829999
0.56071311 -0.22590038 1.5829999
0.56344604 -0.22590038 1.5829999
0.56617898 -0.22590038 1.5829999
0.56891191 -0.22590038 1.5829999
0.57164484 -0.22590038 1.5829999
0.57437772 -0.22590038 1.5829999
0.57711065 -0.22590038 1.5829999
0.57984358 -0.22590038 1.5829999
0.58257651 -0.22590038 1.5829999
0.58530939 -0.22590038 1.5829999
0.58432758 -0.22447336 1.573
0.58704329 -0.22447336 1.573
0.59350818 -0.22590038 1.5829999
0.59247458 -0.22447336 1.573
0.59519023 -0.22447336 1.573
0.59790587 -0.22447336 1.573
0.60062152 -0.22447336 1.573
0.60333717 -0.22447336 1.573
0.60605288 -0.22447336 1.573
0.60876852 -0.22447336 1.573
0.61537153 -0.22590038 1.5829999
0.61419982 -0.22447336 1.573
0.61691546 -0.22447336 1.573
0.61963111 -0.22447336 1.573
0.6263032 -0.22590038 1.5829999
0.62903613 -0.22590038 1.5829999
0.62777811 -0.22447336 1.573
0.63450199 -0.22590038 1.5829999
0.695481 -0.24445193 1.7130001
0.69843835 -0.24445193 1.7130001
0.69648224 -0.24273947 1.701
0.70435303 -0.24445193 1.7130001
0.70731044 -0.24445193 1.7130001
0.71026778 -0.24445193 1.7130001
0.71322513 -0.24445193 1.7130001
0.71618247 -0.24445193 1.7130001
0.71913981 -0.24445193 1.7130001
0.71703869 -0.24273947 1.701
0.72505456 -0.24445193 1.7130001
0.72801191 -0.24445193 1.7130001
0.73096925 -0.24445193 1.7130001
0.73392659 -0.24445193 1.7130001
0.73688394 -0.24445193 1.7130001
0.74502409 -0.24616437 1.725
0.74800211 -0.24616437 1.725
0.7509802 -0.24616437 1.725
0.75395828 -0.24616437 1.725
0.75693637 -0.24616437 1.725
0.7599144 -0.24616437 1.725
0.76289248 -0.24616437 1.725
0.76587057 -0.24616437 1.725
0.76350015 -0.24445193 1.7130001
0.7664575 -0.24445193 1.7130001
0.76941484 -0.24445193 1.7130001
0.76696151 -0.24273947 1.701
0.76989812 -0.24273947 1.701
0.77283478 -0.24273947 1.701
0.77075469 -0.24116974 1.6900001
0.77367234 -0.24116974 1.6900001
0.77658999 -0.24116974 1.6900001
0.77950764 -0.24116974 1.6900001
0.77733254 -0.23959999 1.679
0.76489615 -0.23489074 1.646
0.7626071 -0.233321 1.635
0.76028007 -0.23175125 1.624
0.758385 -0.23032421 1.614
0.75645542 -0.22889717 1.604
0.75922459 -0.22889717 1.604
0.76199377 -0.22889717 1.604
0.75951833 -0.22732745 1.5930001
0.76226848 -0.22732745 1.5930001
0.7650187 -0.22732745 1.5930001
0.76294917 -0.22590038 1.5829999
0.76084518 -0.22447336 1.573
0.75919211 -0.22318903 1.564
0.75702083 -0.22176199 1.554
0.7597037 -0.22176199 1.554
0.75748056 -0.22033495 1.544
0.76014614 -0.22033495 1.544
0.75836527 -0.2190506 1.535
0.75605756 -0.21762356 1.525
0.75869036 -0.21762356 1.525
0.76132315 -0.21762356 1.525
0.7594474 -0.21633923 1.516
0.76206464 -0.21633923 1.516
0.76014215 -0.21505488 1.507
0.75818872 -0.21377057 1.498
0.76077491 -0.21377057 1.498
0.75877476 -0.21248622 1.489
0.76134539 -0.21248622 1.489
0.76391602 -0.21248622 1.489
0.76185381 -0.21120189 1.48
0.76440889 -0.21120189 1.48
0.76281822 -0.21006025 1.472
0.76068002 -0.20877592 1.4630001
0.75903243 -0.2076343 1.455
0.76154435 -0.2076343 1.455
0.75933015 -0.20634995 1.446
0.76182652 -0.20634995 1.446
0.76009429 -0.20520832 1.438
0.75833446 -0.20406668 1.4299999
0.76080322 -0.20406668 1.4299999
0.75900203 -0.20292506 1.4220001
0.76145697 -0.20292506 1.4220001
0.76391196 -0.20292506 1.4220001
0.7663669 -0.20292506 1.4220001
0.76449656 -0.20178343 1.414
0.76693773 -0.20178343 1.414
0.76502591 -0.2006418 1.406
0.76308656 -0.19950016 1.398
0.76111954 -0.19835852 1.39
0.76351923 -0.19835852 1.39
0.76206183 -0.19735961 1.383
0.76444948 -0.19735961 1.383
0.76683712 -0.19735961 1.383
0.76922476 -0.19735961 1.383
0.77161241 -0.19735961 1.383
0.77399999 -0.19735961 1.383
0.77638763 -0.19735961 1.383
0.77877527 -0.19735961 1.383
-0.5984962 -0.16804525 1.192
-0.59944046 -0.16889112 1.198
-0.59737223 -0.16889112 1.198
-0.59530395 -0.16889112 1.198
-0.59323573 -0.16889112 1.198
-0.59116751 -0.16889112 1.198
-0.58909923 -0.16889112 1.198
-0.58703101 -0.16889112 1.198
-0.59033388 -0.17044187 1.209
-0.6125139 -0.18002833 1.277
-0.60409629 -0.17819564 1.2640001
-0.60477126 -0.1790415 1.27
-0.60369533 -0.18002833 1.277
-0.59536755 -0.17819564 1.2640001
-0.59036958 -0.17734978 1.258
-0.59100312 -0.17819564 1.2640001
-0.58882093 -0.17819564 1.2640001
-0.58674294 -0.18369375 1.303
-0.5844934 -0.18369375 1.303
-0.8696472 -0.27758482 1.969
-0.87284702 -0.27969947 1.984
-0.86942184 -0.27969947 1.984
-0.87298048 -0.28195512 2
-0.86952764 -0.28195512 2
-0.8660748 -0.28195512 2
-0.86952293 -0.28421077 2.016
-0.87291586 -0.28646642 2.0320001
-0.88395494 -0.29125965 2.066
-0.88763237 -0.29365626 2.0829999
-0.89889044 -0.29859048 2.118
-0.90284204 -0.30112806 2.1359999
-0.89915442 -0.30112806 2.1359999
-0.90301293 -0.30366567 2.154
-0.89929426 -0.30366567 2.154
-0.89557552 -0.30366567 2.154
-0.89185685 -0.30366567 2.154
-0.88813812 -0.30366567 2.154
-0.89222074 -0.30634424 2.1730001
-0.88846922 -0.30634424 2.1730001
-0.8847177 -0.30634424 2.1730001
-0.88096619 -0.30634424 2.1730001
-0.88488472 -0.30902278 2.1919999
-0.88110042 -0.30902278 2.1919999
0.024601802 -0.21907914 1.554
0.027284656 -0.21907914 1.554
0.029967509 -0.21907914 1.554
0.032650363 -0.21907914 1.554
0.035333216 -0.21907914 1.554
0.03801607 -0.21907914 1.554
0.040698923 -0.21907914 1.554
0.043381777 -0.21907914 1.554
0.04606463 -0.21907914 1.554
0.048747484 -0.21907914 1.554
0.051430337 -0.21907914 1.554
0.054113191 -0.21907914 1.554
0.056796044 -0.21907914 1.554
0.059478898 -0.21907914 1.554
0.062161751 -0.21907914 1.554
0.064844608 -0.21907914 1.554
0.067527458 -0.21907914 1.554
0.070210315 -0.21907914 1.554
0.072893165 -0.21907914 1.554
0.075576022 -0.21907914 1.554
0.078258872 -0.21907914 1.554
0.080941729 -0.21907914 1.554
0.083624579 -0.21907914 1.554
0.086307436 -0.21907914 1.554
0.088990286 -0.21907914 1.554
0.091673143 -0.21907914 1.554
0.094355993 -0.21907914 1.554
0.09703885 -0.21907914 1.554
0.0997217 -0.21907914 1.554
0.10240456 -0.21907914 1.554
0.10508741 -0.21907914 1.554
0.10777026 -0.21907914 1.554
0.11045311 -0.21907914 1.554
0.11313597 -0.21907914 1.554
0.11581882 -0.21907914 1.554
0.11926424 -0.22048891 1.564
0.12196435 -0.22048891 1.564
0.12466447 -0.22048891 1.564
0.12736459 -0.22048891 1.564
0.13006471 -0.22048891 1.564
0.13191594 -0.21907914 1.554
0.13459879 -0.21907914 1.554
0.13728166 -0.21907914 1.554
0.13996451 -0.21907914 1.554
0.14264736 -0.21907914 1.554
0.14533021 -0.21907914 1.554
0.14801307 -0.21907914 1.554
0.15069592 -0.21907914 1.554
0.15337877 -0.21907914 1.554
0.15606162 -0.21907914 1.554
0.15874448 -0.21907914 1.554
0.16142733 -0.21907914 1.554
0.16411018 -0.21907914 1.554
0.16571973 -0.21766935 1.544
0.16740379 -0.21640055 1.535
0.17105091 -0.21766935 1.544
0.17270389 -0.21640055 1.535
0.17535394 -0.21640055 1.535
0.178004 -0.21640055 1.535
0.18171327 -0.21766935 1.544
0.18557301 -0.21907914 1.554
0.18825586 -0.21907914 1.554
0.19093873 -0.21907914 1.554
0.19362158 -0.21907914 1.554
0.19630443 -0.21907914 1.554
0.19898729 -0.21907914 1.554
0.20167014 -0.21907914 1.554
0.20435299 -0.21907914 1.554
0.20703584 -0.21907914 1.554
0.2097187 -0.21907914 1.554
0.21240155 -0.21907914 1.554
0.2150844 -0.21907914 1.554
0.21776725 -0.21907914 1.554
0.22045012 -0.21907914 1.554
0.22313297 -0.21907914 1.554
0.22581582 -0.21907914 1.554
0.22849867 -0.21907914 1.554
0.23118153 -0.21907914 1.554
0.23386438 -0.21907914 1.554
0.23654723 -0.21907914 1.554
0.23923008 -0.21907914 1.554
0.24191295 -0.21907914 1.554
0.2445958 -0.21907914 1.554
0.24727865 -0.21907914 1.554
0.2499615 -0.21907914 1.554
0.25264436 -0.21907914 1.554
0.25532719 -0.21907914 1.554
0.25801006 -0.21907914 1.554
0.26069292 -0.21907914 1.554
0.26337576 -0.21907914 1.554
0.26605862 -0.21907914 1.554
0.26874149 -0.21907914 1.554
0.27142432 -0.21907914 1.554
0.27410719 -0.21907914 1.554
0.27679002 -0.21907914 1.554
0.27947289 -0.21907914 1.554
0.28215575 -0.21907914 1.554
0.28483859 -0.21907914 1.554
0.28752145 -0.21907914 1.554
0.29020432 -0.21907914 1.554
0.29288715 -0.21907914 1.554
0.29366803 -0.21766935 1.544
0.29633361 -0.21766935 1.544
0.29899919 -0.21766935 1.544
0.3016648 -0.21766935 1.544
0.30433038 -0.21766935 1.544
0.30699596 -0.21766935 1.544
0.30966157 -0.21766935 1.544
0.31232715 -0.21766935 1.544
0.31499273 -0.21766935 1.544
0.31765833 -0.21766935 1.544
0.32032391 -0.21766935 1.544
0.32298949 -0.21766935 1.544
0.3256551 -0.21766935 1.544
0.32832068 -0.21766935 1.544
0.33098626 -0.21766935 1.544
0.33365187 -0.21766935 1.544
0.33631745 -0.21766935 1.544
0.33898303 -0.21766935 1.544
0.34164864 -0.21766935 1.544
0.34431422 -0.21766935 1.544
0.34922707 -0.21907914 1.554
0.35727564 -0.21907914 1.554
0.3599585 -0.21907914 1.554
0.36264136 -0.21907914 1.554
0.3653242 -0.21907914 1.554
0.36800706 -0.21907914 1.554
0.3706899 -0.21907914 1.554
0.37337276 -0.21907914 1.554
0.37605563 -0.21907914 1.554
0.37873846 -0.21907914 1.554
0.37896687 -0.21766935 1.544
0.38163248 -0.21766935 1.544
0.38429806 -0.21766935 1.544
0.38696364 -0.21766935 1.544
0.38962924 -0.21766935 1.544
0.39229482 -0.21766935 1.544
0.3949604 -0.21766935 1.544
0.39762601 -0.21766935 1.544
0.40029159 -0.21766935 1.544
0.40295717 -0.21766935 1.544
0.40562278 -0.21766935 1.544
0.41093272 -0.21907914 1.554
0.40855849 -0.21640055 1.535
0.41120854 -0.21640055 1.535
0.41628513 -0.21766935 1.544
0.41895071 -0.21766935 1.544
0.42434698 -0.21907914 1.554
0.4242819 -0.21766935 1.544
0.42694747 -0.21766935 1.544
0.42961308 -0.21766935 1.544
0.43507838 -0.21907914 1.554
0.43776125 -0.21907914 1.554
0.44044411 -0.21907914 1.554
0.44312695 -0.21907914 1.554
0.44580981 -0.21907914 1.554
0.44849268 -0.21907914 1.554
0.45117551 -0.21907914 1.554
0.45385838 -0.21907914 1.554
0.45654121 -0.21907914 1.554
0.45922408 -0.21907914 1.554
0.46190694 -0.21907914 1.554
0.46757942 -0.22048891 1.564
0.47027954 -0.22048891 1.564
0.47570139 -0.2217577 1.573
0.47841704 -0.2217577 1.573
0.48113269 -0.2217577 1.573
0.48692432 -0.22316746 1.5829999
0.48965722 -0.22316746 1.5829999
0.49239016 -0.22316746 1.5829999
0.49512306 -0.22316746 1.5829999
0.49785599 -0.22316746 1.5829999
0.50058889 -0.22316746 1.5829999
0.50332183 -0.22316746 1.5829999
0.50605476 -0.22316746 1.5829999
0.51200175 -0.22457726 1.5930001
0.51152056 -0.22316746 1.5829999
0.5142535 -0.22316746 1.5829999
0.51698643 -0.22316746 1.5829999
0.51971936 -0.22316746 1.5829999
0.52245229 -0.22316746 1.5829999
0.52518517 -0.22316746 1.5829999
0.5279181 -0.22316746 1.5829999
0.53065103 -0.22316746 1.5829999
0.53338397 -0.22316746 1.5829999
0.53611684 -0.22316746 1.5829999
0.53884977 -0.22316746 1.5829999
0.5415827 -0.22316746 1.5829999
0.54431564 -0.22316746 1.5829999
0.54704857 -0.22316746 1.5829999
0.54978144 -0.22316746 1.5829999
0.55251437 -0.22316746 1.5829999
0.55524731 -0.22316746 1.5829999
0.55798024 -0.22316746 1.5829999
0.56071311 -0.22316746 1.5829999
0.56344604 -0.22316746 1.5829999
0.56617898 -0.22316746 1.5829999
0.56891191 -0.22316746 1.5829999
0.57164484 -0.22316746 1.5829999
0.57437772 -0.22316746 1.5829999
0.57711065 -0.22316746 1.5829999
0.57984358 -0.22316746 1.5829999
0.58257651 -0.22316746 1.5829999
0.58530939 -0.22316746 1.5829999
0.58804232 -0.22316746 1.5829999
0.59077525 -0.22316746 1.5829999
0.59350818 -0.22316746 1.5829999
0.59624112 -0.22316746 1.5829999
0.59519023 -0.2217577 1.573
0.59790587 -0.2217577 1.573
0.60443985 -0.22316746 1.5829999
0.60717279 -0.22316746 1.5829999
0.60990572 -0.22316746 1.5829999
0.61263859 -0.22316746 1.5829999
0.61537153 -0.22316746 1.5829999
0.61419982 -0.2217577 1.573
0.61691546 -0.2217577 1.573
0.61963111 -0.2217577 1.573
0.6263032 -0.22316746 1.5829999
0.62903613 -0.22316746 1.5829999
0.63176906 -0.22316746 1.5829999
0.63450199 -0.22316746 1.5829999
0.69060892 -0.23980282 1.701
0.69354558 -0.23980282 1.701
0.69648224 -0.23980282 1.701
0.70435303 -0.24149457 1.7130001
0.70731044 -0.24149457 1.7130001
0.71026778 -0.24149457 1.7130001
0.71322513 -0.24149457 1.7130001
0.71618247 -0.24149457 1.7130001
0.71913981 -0.24149457 1.7130001
0.72209716 -0.24149457 1.7130001
0.72505456 -0.24149457 1.7130001
0.72801191 -0.24149457 1.7130001
0.73096925 -0.24149457 1.7130001
0.73392659 -0.24149457 1.7130001
0.73688394 -0.24149457 1.7130001
0.74502409 -0.2431863 1.725
0.74800211 -0.2431863 1.725
0.7509802 -0.2431863 1.725
0.75395828 -0.2431863 1.725
0.75693637 -0.2431863 1.725
0.7599144 -0.2431863 1.725
0.76289248 -0.2431863 1.725
0.76054281 -0.24149457 1.7130001
0.76350015 -0.24149457 1.7130001
0.7664575 -0.24149457 1.7130001
0.76941484 -0.24149457 1.7130001
0.76696151 -0.23980282 1.701
0.76989812 -0.23980282 1.701
0.77283478 -0.23980282 1.701
0.77075469 -0.23825209 1.6900001
0.77367234 -0.23825209 1.6900001
0.77658999 -0.23825209 1.6900001
0.77950764 -0.23825209 1.6900001
0.77733254 -0.23670132 1.679
0.76489615 -0.23204906 1.646
0.7626071 -0.23049831 1.635
0.76028007 -0.22894755 1.624
0.758385 -0.22753778 1.614
0.75645542 -0.226128 1.604
0.75922459 -0.226128 1.604
0.76199377 -0.226128 1.604
0.75951833 -0.22457726 1.5930001
0.76226848 -0.22457726 1.5930001
0.7650187 -0.22457726 1.5930001
0.76294917 -0.22316746 1.5829999
0.76084518 -0.2217577 1.573
0.75919211 -0.22048891 1.564
0.75702083 -0.21907914 1.554
0.75481498 -0.21766935 1.544
0.75748056 -0.21766935 1.544
0.75571525 -0.21640055 1.535
0.75836527 -0.21640055 1.535
0.75605756 -0.21499078 1.525
0.75869036 -0.21499078 1.525
0.75683016 -0.21372199 1.516
0.7594474 -0.21372199 1.516
0.75754046 -0.21245317 1.507
0.76014215 -0.21245317 1.507
0.75818872 -0.21118438 1.498
0.76077491 -0.21118438 1.498
0.75877476 -0.20991558 1.489
0.76134539 -0.20991558 1.489
0.75929868 -0.20864679 1.48
0.76185381 -0.20864679 1.48
0.76440889 -0.20864679 1.48
0.76281822 -0.20751897 1.472
0.76068002 -0.20625018 1.4630001
0.75903243 -0.20512235 1.455
0.76154435 -0.20512235 1.455
0.75933015 -0.20385355 1.446
0.76182652 -0.20385355 1.446
0.76009429 -0.20272572 1.438
0.75833446 -0.2015979 1.4299999
0.76080322 -0.2015979 1.4299999
0.75900203 -0.20047009 1.4220001
0.76145697 -0.20047009 1.4220001
0.76391196 -0.20047009 1.4220001
0.7620554 -0.19934228 1.414
0.76449656 -0.19934228 1.414
0.76693773 -0.19934228 1.414
0.76502591 -0.19821446 1.406
0.76308656 -0.19708663 1.398
0.76111954 -0.19595881 1.39
0.76351923 -0.19595881 1.39
0.76206183 -0.19497196 1.383
0.76444948 -0.19497196 1.383
0.76683712 -0.19497196 1.383
0.76922476 -0.19497196 1.383
0.77161241 -0.19497196 1.383
0.77399999 -0.19497196 1.383
0.77638763 -0.19497196 1.383
0.77877527 -0.19497196 1.383
-0.5984962 -0.16598737 1.192
-0.59944046 -0.16682287 1.198
-0.59737223 -0.16682287 1.198
-0.59530395 -0.16682287 1.198
-0.59323573 -0.16682287 1.198
-0.59116751 -0.16682287 1.198
-0.58909923 -0.16682287 1.198
-0.58409095 -0.16598737 1.192
-0.58496273 -0.16682287 1.198
-0.59116596 -0.16919014 1.215
-0.62210697 -0.18060873 1.2970001
-0.6198678 -0.18060873 1.2970001
-0.61429518 -0.17963396 1.29
-0.60093272 -0.17963396 1.29
-0.87627226 -0.27627426 1.984
-0.87988615 -0.27850229 2
-0.87643331 -0.27850229 2
-0.87298048 -0.27850229 2
-0.86952764 -0.27850229 2
-0.8660748 -0.27850229 2
-0.86262196 -0.27850229 2
-0.86604249 -0.28073031 2.016
-0.88395494 -0.28769284 2.066
-0.88763237 -0.29006013 2.0829999
-0.89889044 -0.29493392 2.118
-0.90284204 -0.29744044 2.1359999
-0.89915442 -0.29744044 2.1359999
-0.90301293 -0.29994696 2.154
-0.89929426 -0.29994696 2.154
-0.89557552 -0.29994696 2.154
-0.89972371 -0.30259275 2.1730001
-0.89597225 -0.30259275 2.1730001
-0.89222074 -0.30259275 2.1730001
-0.88846922 -0.30259275 2.1730001
-0.89245331 -0.30523849 2.1919999
-0.88866901 -0.30523849 2.1919999
-0.88488472 -0.30523849 2.1919999
-0.88110042 -0.30523849 2.1919999
-0.33933717 -0.33448124 2.402
-0.33839989 -0.33768401 2.425
-0.33421332 -0.33768401 2.425
0.024601802 -0.21639627 1.554
0.027284656 -0.21639627 1.554
0.029967509 -0.21639627 1.554
0.032650363 -0.21639627 1.554
0.035333216 -0.21639627 1.554
0.03801607 -0.21639627 1.554
0.040698923 -0.21639627 1.554
0.043381777 -0.21639627 1.554
0.04606463 -0.21639627 1.554
0.048747484 -0.21639627 1.554
0.051430337 -0.21639627 1.554
0.054113191 -0.21639627 1.554
0.056796044 -0.21639627 1.554
0.059478898 -0.21639627 1.554
0.062161751 -0.21639627 1.554
0.064844608 -0.21639627 1.554
0.067527458 -0.21639627 1.554
0.070210315 -0.21639627 1.554
0.072893165 -0.21639627 1.554
0.075576022 -0.21639627 1.554
0.078258872 -0.21639627 1.554
0.080941729 -0.21639627 1.554
0.083624579 -0.21639627 1.554
0.086307436 -0.21639627 1.554
0.088990286 -0.21639627 1.554
0.091673143 -0.21639627 1.554
0.094355993 -0.21639627 1.554
0.09703885 -0.21639627 1.554
0.0997217 -0.21639627 1.554
0.10240456 -0.21639627 1.554
0.10508741 -0.21639627 1.554
0.10777026 -0.21639627 1.554
0.11045311 -0.21639627 1.554
0.11313597 -0.21639627 1.554
0.11581882 -0.21639627 1.554
0.11850168 -0.21639627 1.554
0.12118453 -0.21639627 1.554
0.12466447 -0.21778879 1.564
0.12736459 -0.21778879 1.564
0.13006471 -0.21778879 1.564
0.13191594 -0.21639627 1.554
0.13459879 -0.21639627 1.554
0.13728166 -0.21639627 1.554
0.13996451 -0.21639627 1.554
0.14264736 -0.21639627 1.554
0.14533021 -0.21639627 1.554
0.14801307 -0.21639627 1.554
0.15069592 -0.21639627 1.554
0.15337877 -0.21639627 1.554
0.15606162 -0.21639627 1.554
0.15874448 -0.21639627 1.554
0.16142733 -0.21639627 1.554
0.16411018 -0.21639627 1.554
0.16571973 -0.21500377 1.544
0.16838531 -0.21500377 1.544
0.17105091 -0.21500377 1.544
0.17270389 -0.2137505 1.535
0.17535394 -0.2137505 1.535
0.17904767 -0.21500377 1.544
0.18171327 -0.21500377 1.544
0.18557301 -0.21639627 1.554
0.18825586 -0.21639627 1.554
0.19093873 -0.21639627 1.554
0.19362158 -0.21639627 1.554
0.19630443 -0.21639627 1.554
0.19898729 -0.21639627 1.554
0.20167014 -0.21639627 1.554
0.20435299 -0.21639627 1.554
0.20703584 -0.21639627 1.554
0.2097187 -0.21639627 1.554
0.21240155 -0.21639627 1.554
0.21370034 -0.21500377 1.544
0.21636592 -0.21500377 1.544
0.22045012 -0.21639627 1.554
0.22313297 -0.21639627 1.554
0.2243627 -0.21500377 1.544
0.22849867 -0.21639627 1.554
0.23118153 -0.21639627 1.554
0.23386438 -0.21639627 1.554
0.23654723 -0.21639627 1.554
0.23923008 -0.21639627 1.554
0.24191295 -0.21639627 1.554
0.2445958 -0.21639627 1.554
0.24727865 -0.21639627 1.554
0.2499615 -0.21639627 1.554
0.25264436 -0.21639627 1.554
0.25532719 -0.21639627 1.554
0.25801006 -0.21639627 1.554
0.26069292 -0.21639627 1.554
0.26337576 -0.21639627 1.554
0.26605862 -0.21639627 1.554
0.26874149 -0.21639627 1.554
0.27142432 -0.21639627 1.554
0.27410719 -0.21639627 1.554
0.27679002 -0.21639627 1.554
0.27947289 -0.21639627 1.554
0.28034008 -0.21500377 1.544
0.28300565 -0.21500377 1.544
0.28567126 -0.21500377 1.544
0.28833684 -0.21500377 1.544
0.29288715 -0.21639627 1.554
0.29366803 -0.21500377 1.544
0.29633361 -0.21500377 1.544
0.29899919 -0.21500377 1.544
0.3016648 -0.21500377 1.544
0.30433038 -0.21500377 1.544
0.30699596 -0.21500377 1.544
0.30966157 -0.21500377 1.544
0.31232715 -0.21500377 1.544
0.31499273 -0.21500377 1.544
0.31765833 -0.21500377 1.544
0.32032391 -0.21500377 1.544
0.32298949 -0.21500377 1.544
0.3256551 -0.21500377 1.544
0.32832068 -0.21500377 1.544
0.33098626 -0.21500377 1.544
0.33365187 -0.21500377 1.544
0.33631745 -0.21500377 1.544
0.33898303 -0.21500377 1.544
0.34164864 -0.21500377 1.544
0.34431422 -0.21500377 1.544
0.34922707 -0.21639627 1.554
0.35190994 -0.21639627 1.554
0.3545928 -0.21639627 1.554
0.35727564 -0.21639627 1.554
0.3599585 -0.21639627 1.554
0.36264136 -0.21639627 1.554
0.3653242 -0.21639627 1.554
0.36800706 -0.21639627 1.554
0.3706899 -0.21639627 1.554
0.37337276 -0.21639627 1.554
0.37605563 -0.21639627 1.554
0.37873846 -0.21639627 1.554
0.37896687 -0.21500377 1.544
0.38163248 -0.21500377 1.544
0.38429806 -0.21500377 1.544
0.38946989 -0.21639627 1.554
0.39215273 -0.21639627 1.554
0.39229482 -0.21500377 1.544
0.39751846 -0.21639627 1.554
0.40020129 -0.21639627 1.554
0.40288416 -0.21639627 1.554
0.40556702 -0.21639627 1.554
0.40824986 -0.21639627 1.554
0.41093272 -0.21639627 1.554
0.41361555 -0.21639627 1.554
0.41361955 -0.21500377 1.544
0.41628513 -0.21500377 1.544
0.42166412 -0.21639627 1.554
0.42434698 -0.21639627 1.554
0.4242819 -0.21500377 1.544
0.42694747 -0.21500377 1.544
0.42961308 -0.21500377 1.544
0.43507838 -0.21639627 1.554
0.43776125 -0.21639627 1.554
0.44044411 -0.21639627 1.554
0.44312695 -0.21639627 1.554
0.44580981 -0.21639627 1.554
0.44849268 -0.21639627 1.554
0.45117551 -0.21639627 1.554
0.45385838 -0.21639627 1.554
0.45654121 -0.21639627 1.554
0.45922408 -0.21639627 1.554
0.46190694 -0.21639627 1.554
0.46458977 -0.21639627 1.554
0.47027954 -0.21778879 1.564
0.47297966 -0.21778879 1.564
0.47841704 -0.21904203 1.573
0.48113269 -0.21904203 1.573
0.48692432 -0.22043455 1.5829999
0.48965722 -0.22043455 1.5829999
0.49239016 -0.22043455 1.5829999
0.49512306 -0.22043455 1.5829999
0.49785599 -0.22043455 1.5829999
0.50058889 -0.22043455 1.5829999
0.50332183 -0.22043455 1.5829999
0.50605476 -0.22043455 1.5829999
0.51200175 -0.22182707 1.5930001
0.51152056 -0.22043455 1.5829999
0.5142535 -0.22043455 1.5829999
0.51698643 -0.22043455 1.5829999
0.51971936 -0.22043455 1.5829999
0.52245229 -0.22043455 1.5829999
0.52518517 -0.22043455 1.5829999
0.5279181 -0.22043455 1.5829999
0.53065103 -0.22043455 1.5829999
0.53338397 -0.22043455 1.5829999
0.53611684 -0.22043455 1.5829999
0.53884977 -0.22043455 1.5829999
0.5415827 -0.22043455 1.5829999
0.54431564 -0.22043455 1.5829999
0.54704857 -0.22043455 1.5829999
0.54978144 -0.22043455 1.5829999
0.55251437 -0.22043455 1.5829999
0.55524731 -0.22043455 1.5829999
0.55798024 -0.22043455 1.5829999
0.56071311 -0.22043455 1.5829999
0.56344604 -0.22043455 1.5829999
0.56617898 -0.22043455 1.5829999
0.56891191 -0.22043455 1.5829999
0.57164484 -0.22043455 1.5829999
0.57437772 -0.22043455 1.5829999
0.57711065 -0.22043455 1.5829999
0.57984358 -0.22043455 1.5829999
0.58257651 -0.22043455 1.5829999
0.58530939 -0.22043455 1.5829999
0.58804232 -0.22043455 1.5829999
0.59077525 -0.22043455 1.5829999
0.59350818 -0.22043455 1.5829999
0.59624112 -0.22043455 1.5829999
0.59897399 -0.22043455 1.5829999
0.59790587 -0.21904203 1.573
0.60443985 -0.22043455 1.5829999
0.60717279 -0.22043455 1.5829999
0.60990572 -0.22043455 1.5829999
0.61263859 -0.22043455 1.5829999
0.61537153 -0.22043455 1.5829999
0.61810446 -0.22043455 1.5829999
0.61691546 -0.21904203 1.573
0.62357026 -0.22043455 1.5829999
0.6263032 -0.22043455 1.5829999
0.62903613 -0.22043455 1.5829999
0.63176906 -0.22043455 1.5829999
0.63450199 -0.22043455 1.5829999
0.68614298 -0.23533444 1.6900001
0.69354558 -0.23686619 1.701
0.69648224 -0.23686619 1.701
0.70435303 -0.23853721 1.7130001
0.70731044 -0.23853721 1.7130001
0.71026778 -0.23853721 1.7130001
0.71322513 -0.23853721 1.7130001
0.71618247 -0.23853721 1.7130001
0.71913981 -0.23853721 1.7130001
0.72209716 -0.23853721 1.7130001
0.72505456 -0.23853721 1.7130001
0.72801191 -0.23853721 1.7130001
0.73096925 -0.23853721 1.7130001
0.73906791 -0.24020822 1.725
0.742046 -0.24020822 1.725
0.74502409 -0.24020822 1.725
0.74800211 -0.24020822 1.725
0.75620443 -0.24187922 1.737
0.7592032 -0.24187922 1.737
0.75693637 -0.24020822 1.725
0.7599144 -0.24020822 1.725
0.76289248 -0.24020822 1.725
0.76587057 -0.24020822 1.725
0.76350015 -0.23853721 1.7130001
0.7664575 -0.23853721 1.7130001
0.76941484 -0.23853721 1.7130001
0.76696151 -0.23686619 1.701
0.76989812 -0.23686619 1.701
0.77283478 -0.23686619 1.701
0.77075469 -0.23533444 1.6900001
0.77367234 -0.23533444 1.6900001
0.77658999 -0.23533444 1.6900001
0.77950764 -0.23533444 1.6900001
0.77733254 -0.23380268 1.679
0.76489615 -0.22920738 1.646
0.7626071 -0.22767562 1.635
0.76028007 -0.22614385 1.624
0.758385 -0.22475134 1.614
0.75645542 -0.22335882 1.604
0.75922459 -0.22335882 1.604
0.75676817 -0.22182707 1.5930001
0.75951833 -0.22182707 1.5930001
0.76226848 -0.22182707 1.5930001
0.7650187 -0.22182707 1.5930001
0.76294917 -0.22043455 1.5829999
0.76084518 -0.21904203 1.573
0.75919211 -0.21778879 1.564
0.75702083 -0.21639627 1.554
0.75481498 -0.21500377 1.544
0.75748056 -0.21500377 1.544
0.75571525 -0.2137505 1.535
0.75836527 -0.2137505 1.535
0.75605756 -0.21235798 1.525
0.75869036 -0.21235798 1.525
0.75683016 -0.21110474 1.516
0.7594474 -0.21110474 1.516
0.75754046 -0.20985147 1.507
0.76014215 -0.20985147 1.507
0.75818872 -0.20859821 1.498
0.76077491 -0.20859821 1.498
0.75877476 -0.20734495 1.489
0.76134539 -0.20734495 1.489
0.75929868 -0.20609169 1.48
0.76185381 -0.20609169 1.48
0.76440889 -0.20609169 1.48
0.76281822 -0.20497768 1.472
0.76068002 -0.20372443 1.4630001
0.75903243 -0.20261042 1.455
0.76154435 -0.20261042 1.455
0.75933015 -0.20135714 1.446
0.76182652 -0.20135714 1.446
0.76009429 -0.20024313 1.438
0.76257688 -0.20024313 1.438
0.76080322 -0.19912912 1.4299999
0.75900203 -0.19801512 1.4220001
0.76145697 -0.19801512 1.4220001
0.76391196 -0.19801512 1.4220001
0.7620554 -0.19690111 1.414
0.76449656 -0.19690111 1.414
0.76259857 -0.1957871 1.406
0.76502591 -0.1957871 1.406
0.76308656 -0.19467309 1.398
0.76111954 -0.19355908 1.39
0.76351923 -0.19355908 1.39
0.76206183 -0.19258434 1.383
0.76444948 -0.19258434 1.383
0.76683712 -0.19258434 1.383
0.76922476 -0.19258434 1.383
0.76714897 -0.19147032 1.375
0.76952279 -0.19147032 1.375
0.7718966 -0.19147032 1.375
0.77427042 -0.19147032 1.375
0.77664423 -0.19147032 1.375
-0.5984962 -0.16392948 1.192
-0.59643829 -0.16392948 1.192
-0.59438044 -0.16392948 1.192
-0.59232253 -0.16392948 1.192
-0.59323573 -0.16475461 1.198
-0.59116751 -0.16475461 1.198
-0.58909923 -0.16475461 1.198
-0.87284702 -0.27284905 1.984
-0.86942184 -0.27284905 1.984
-0.87298048 -0.27504945 2
-0.86952764 -0.27504945 2
-0.8660748 -0.27504945 2
-0.86262196 -0.27504945 2
-0.86604249 -0.27724984 2.016
-0.87668133 -0.28178817 2.049
-0.88038814 -0.28412607 2.066
-0.89125109 -0.28880191 2.0999999
-0.89523387 -0.29127738 2.118
-0.89915442 -0.29375279 2.1359999
-0.90301293 -0.29622826 2.154
-0.89929426 -0.29622826 2.154
-0.89557552 -0.29622826 2.154
-0.89185685 -0.29622826 2.154
-0.88813812 -0.29622826 2.154
-0.89222074 -0.29884124 2.1730001
-0.88846922 -0.29884124 2.1730001
-0.8847177 -0.29884124 2.1730001
-0.88866901 -0.30145419 2.1919999
-0.88488472 -0.30145419 2.1919999
-0.88110042 -0.30145419 2.1919999
-0.34258643 -0.33349743 2.425
-0.32274973 -0.33033437 2.402
-0.26564503 -0.33679804 2.4489999
-0.26141703 -0.33679804 2.4489999
0.0217779 -0.21233818 1.544
0.024601802 -0.21371342 1.554
0.027284656 -0.21371342 1.554
0.029967509 -0.21371342 1.554
0.032650363 -0.21371342 1.554
0.035333216 -0.21371342 1.554
0.03801607 -0.21371342 1.554
0.040698923 -0.21371342 1.554
0.043381777 -0.21371342 1.554
0.04606463 -0.21371342 1.554
0.048747484 -0.21371342 1.554
0.051430337 -0.21371342 1.554
0.054113191 -0.21371342 1.554
0.056796044 -0.21371342 1.554
0.059478898 -0.21371342 1.554
0.062161751 -0.21371342 1.554
0.064844608 -0.21371342 1.554
0.067527458 -0.21371342 1.554
0.070210315 -0.21371342 1.554
0.072893165 -0.21371342 1.554
0.075576022 -0.21371342 1.554
0.078258872 -0.21371342 1.554
0.080941729 -0.21371342 1.554
0.083624579 -0.21371342 1.554
0.086307436 -0.21371342 1.554
0.088990286 -0.21371342 1.554
0.091673143 -0.21371342 1.554
0.094355993 -0.21371342 1.554
0.09703885 -0.21371342 1.554
0.0997217 -0.21371342 1.554
0.10240456 -0.21371342 1.554
0.10508741 -0.21371342 1.554
0.10707676 -0.21233818 1.544
0.11045311 -0.21371342 1.554
0.11240794 -0.21233818 1.544
0.11507353 -0.21233818 1.544
0.11850168 -0.21371342 1.554
0.12118453 -0.21371342 1.554
0.12466447 -0.21508867 1.564
0.12736459 -0.21508867 1.564
0.13006471 -0.21508867 1.564
0.13191594 -0.21371342 1.554
0.13459879 -0.21371342 1.554
0.13728166 -0.21371342 1.554
0.13996451 -0.21371342 1.554
0.14264736 -0.21371342 1.554
0.14533021 -0.21371342 1.554
0.14801307 -0.21371342 1.554
0.15069592 -0.21371342 1.554
0.15337877 -0.21371342 1.554
0.15505737 -0.21233818 1.544
0.15874448 -0.21371342 1.554
0.16038854 -0.21233818 1.544
0.16305414 -0.21233818 1.544
0.16571973 -0.21233818 1.544
0.16838531 -0.21233818 1.544
0.17105091 -0.21233818 1.544
0.17270389 -0.21110044 1.535
0.17535394 -0.21110044 1.535
0.178004 -0.21110044 1.535
0.18171327 -0.21233818 1.544
0.18437885 -0.21233818 1.544
0.18825586 -0.21371342 1.554
0.19093873 -0.21371342 1.554
0.19362158 -0.21371342 1.554
0.19630443 -0.21371342 1.554
0.19898729 -0.21371342 1.554
0.20167014 -0.21371342 1.554
0.20435299 -0.21371342 1.554
0.20703584 -0.21371342 1.554
0.2097187 -0.21371342 1.554
0.21240155 -0.21371342 1.554
0.2150844 -0.21371342 1.554
0.21776725 -0.21371342 1.554
0.22045012 -0.21371342 1.554
0.22313297 -0.21371342 1.554
0.2243627 -0.21233818 1.544
0.22849867 -0.21371342 1.554
0.23118153 -0.21371342 1.554
0.23235947 -0.21233818 1.544
0.23654723 -0.21371342 1.554
0.23923008 -0.21371342 1.554
0.24191295 -0.21371342 1.554
0.2445958 -0.21371342 1.554
0.24727865 -0.21371342 1.554
0.2499615 -0.21371342 1.554
0.25264436 -0.21371342 1.554
0.25532719 -0.21371342 1.554
0.25801006 -0.21371342 1.554
0.26069292 -0.21371342 1.554
0.26337576 -0.21371342 1.554
0.26605862 -0.21371342 1.554
0.26874149 -0.21371342 1.554
0.2696777 -0.21233818 1.544
0.27234331 -0.21233818 1.544
0.27679002 -0.21371342 1.554
0.27947289 -0.21371342 1.554
0.28034008 -0.21233818 1.544
0.28300565 -0.21233818 1.544
0.28752145 -0.21371342 1.554
0.29020432 -0.21371342 1.554
0.29288715 -0.21371342 1.554
0.29366803 -0.21233818 1.544
0.29633361 -0.21233818 1.544
0.29899919 -0.21233818 1.544
0.3016648 -0.21233818 1.544
0.30255643 -0.21110044 1.535
0.30699596 -0.21233818 1.544
0.30966157 -0.21233818 1.544
0.31232715 -0.21233818 1.544
0.31499273 -0.21233818 1.544
0.31765833 -0.21233818 1.544
0.32032391 -0.21233818 1.544
0.32298949 -0.21233818 1.544
0.3256551 -0.21233818 1.544
0.32832068 -0.21233818 1.544
0.33098626 -0.21233818 1.544
0.33365187 -0.21233818 1.544
0.33631745 -0.21233818 1.544
0.33898303 -0.21233818 1.544
0.34386137 -0.21371342 1.554
0.34431422 -0.21233818 1.544
0.34922707 -0.21371342 1.554
0.35190994 -0.21371342 1.554
0.35687459 -0.21508867 1.564
0.35727564 -0.21371342 1.554
0.3599585 -0.21371342 1.554
0.36264136 -0.21371342 1.554
0.3653242 -0.21371342 1.554
0.36800706 -0.21371342 1.554
0.3706899 -0.21371342 1.554
0.37337276 -0.21371342 1.554
0.37605563 -0.21371342 1.554
0.37630129 -0.21233818 1.544
0.37896687 -0.21233818 1.544
0.38163248 -0.21233818 1.544
0.38429806 -0.21233818 1.544
0.38946989 -0.21371342 1.554
0.39215273 -0.21371342 1.554
0.39229482 -0.21233818 1.544
0.39751846 -0.21371342 1.554
0.40020129 -0.21371342 1.554
0.40288416 -0.21371342 1.554
0.40556702 -0.21371342 1.554
0.40824986 -0.21371342 1.554
0.41093272 -0.21371342 1.554
0.41361555 -0.21371342 1.554
0.41629842 -0.21371342 1.554
0.41628513 -0.21233818 1.544
0.42166412 -0.21371342 1.554
0.42434698 -0.21371342 1.554
0.4242819 -0.21233818 1.544
0.42694747 -0.21233818 1.544
0.43239555 -0.21371342 1.554
0.43507838 -0.21371342 1.554
0.43776125 -0.21371342 1.554
0.44044411 -0.21371342 1.554
0.44312695 -0.21371342 1.554
0.44580981 -0.21371342 1.554
0.44849268 -0.21371342 1.554
0.45117551 -0.21371342 1.554
0.45385838 -0.21371342 1.554
0.45654121 -0.21371342 1.554
0.45922408 -0.21371342 1.554
0.46190694 -0.21371342 1.554
0.46458977 -0.21371342 1.554
0.47027954 -0.21508867 1.564
0.47297966 -0.21508867 1.564
0.47841704 -0.21632639 1.573
0.48113269 -0.21632639 1.573
0.48692432 -0.21770163 1.5829999
0.48965722 -0.21770163 1.5829999
0.49239016 -0.21770163 1.5829999
0.49512306 -0.21770163 1.5829999
0.49785599 -0.21770163 1.5829999
0.50058889 -0.21770163 1.5829999
0.50332183 -0.21770163 1.5829999
0.50605476 -0.21770163 1.5829999
0.50878769 -0.21770163 1.5829999
0.51152056 -0.21770163 1.5829999
0.5142535 -0.21770163 1.5829999
0.51698643 -0.21770163 1.5829999
0.51971936 -0.21770163 1.5829999
0.52245229 -0.21770163 1.5829999
0.52518517 -0.21770163 1.5829999
0.5279181 -0.21770163 1.5829999
0.53065103 -0.21770163 1.5829999
0.53338397 -0.21770163 1.5829999
0.53611684 -0.21770163 1.5829999
0.53884977 -0.21770163 1.5829999
0.5415827 -0.21770163 1.5829999
0.54431564 -0.21770163 1.5829999
0.54704857 -0.21770163 1.5829999
0.54978144 -0.21770163 1.5829999
0.55251437 -0.21770163 1.5829999
0.55524731 -0.21770163 1.5829999
0.55798024 -0.21770163 1.5829999
0.56071311 -0.21770163 1.5829999
0.56344604 -0.21770163 1.5829999
0.56617898 -0.21770163 1.5829999
0.56891191 -0.21770163 1.5829999
0.57164484 -0.21770163 1.5829999
0.57437772 -0.21770163 1.5829999
0.57711065 -0.21770163 1.5829999
0.57984358 -0.21770163 1.5829999
0.58257651 -0.21770163 1.5829999
0.58530939 -0.21770163 1.5829999
0.58804232 -0.21770163 1.5829999
0.59077525 -0.21770163 1.5829999
0.59350818 -0.21770163 1.5829999
0.59624112 -0.21770163 1.5829999
0.59897399 -0.21770163 1.5829999
0.60170692 -0.21770163 1.5829999
0.60443985 -0.21770163 1.5829999
0.60717279 -0.21770163 1.5829999
0.60990572 -0.21770163 1.5829999
0.61263859 -0.21770163 1.5829999
0.61537153 -0.21770163 1.5829999
0.61419982 -0.21632639 1.573
0.61691546 -0.21632639 1.573
0.62357026 -0.21770163 1.5829999
0.6263032 -0.21770163 1.5829999
0.62903613 -0.21770163 1.5829999
0.63176906 -0.21770163 1.5829999
0.63450199 -0.21770163 1.5829999
0.68322533 -0.23241679 1.6900001
0.68614298 -0.23241679 1.6900001
0.69354558 -0.23392954 1.701
0.69648224 -0.23392954 1.701
0.70435303 -0.23557986 1.7130001
0.70731044 -0.23557986 1.7130001
0.71026778 -0.23557986 1.7130001
